ply
format ascii 1.0
element vertex 753
property double x
property double y
property double z
property uchar red
property uchar green
property uchar blue
end_header
0.198984528965597 -1.313134669396502 1.307320631217711 58 10 7
0.198984528965597 -1.313134669396502 1.349492264482799 91 52 36
0.198984528965597 -1.313134669396502 1.391663897747886 122 77 60
0.198984528965597 -1.313134669396502 1.433835531012974 145 85 69
0.198984528965597 -1.313134669396502 1.476007164278061 228 139 103
0.198984528965597 -1.313134669396502 1.518178797543148 161 71 70
0.198984528965597 -1.313134669396502 1.560350430808236 38 34 27
0.198984528965597 -1.313134669396502 1.602522064073324 73 80 59
0.198984528965597 -1.270963036131414 1.138634098157361 123 76 55
0.198984528965597 -1.270963036131414 1.180805731422449 126 77 62
0.198984528965597 -1.270963036131414 1.222977364687536 145 76 77
0.198984528965597 -1.270963036131414 1.265148997952624 61 9 11
0.198984528965597 -1.270963036131414 1.307320631217711 51 9 4
0.198984528965597 -1.270963036131414 1.349492264482799 51 30 26
0.198984528965597 -1.270963036131414 1.391663897747886 107 90 68
0.198984528965597 -1.270963036131414 1.433835531012974 159 83 62
0.198984528965597 -1.270963036131414 1.476007164278061 103 44 57
0.198984528965597 -1.270963036131414 1.518178797543148 207 118 101
0.198984528965597 -1.270963036131414 1.560350430808236 85 46 29
0.198984528965597 -1.270963036131414 1.602522064073324 41 33 26
0.198984528965597 -1.270963036131414 1.644693697338411 42 35 28
0.198984528965597 -1.228791402866327 1.180805731422449 121 67 47
0.198984528965597 -1.228791402866327 1.222977364687536 164 100 78
0.198984528965597 -1.228791402866327 1.265148997952624 97 63 63
0.198984528965597 -1.228791402866327 1.307320631217711 65 11 6
0.198984528965597 -1.228791402866327 1.349492264482799 67 12 11
0.198984528965597 -1.228791402866327 1.433835531012974 35 22 19
0.198984528965597 -1.228791402866327 1.476007164278061 132 80 64
0.198984528965597 -1.228791402866327 1.518178797543148 116 76 52
0.198984528965597 -1.228791402866327 1.560350430808236 27 24 23
0.198984528965597 -1.228791402866327 1.602522064073324 42 36 28
0.198984528965597 -1.228791402866327 1.644693697338411 36 29 24
0.198984528965597 -1.186619769601239 1.433835531012974 37 28 19
0.198984528965597 -1.186619769601239 1.476007164278061 101 64 41
0.198984528965597 -1.186619769601239 1.518178797543148 18 15 9
0.198984528965597 -1.186619769601239 1.560350430808236 29 20 20
0.198984528965597 -1.186619769601239 1.602522064073324 31 22 20
0.198984528965597 -1.144448136336152 1.476007164278061 16 14 13
0.198984528965597 -1.144448136336152 1.518178797543148 20 16 15
0.198984528965597 -1.144448136336152 1.560350430808236 49 28 27
0.241156162230685 -1.608336102252114 0.000000000000000 78 49 41
0.241156162230685 -1.608336102252114 0.042171633265087 95 58 39
0.241156162230685 -1.608336102252114 0.084343266530175 92 61 43
0.241156162230685 -1.608336102252114 0.126514899795262 107 69 51
0.241156162230685 -1.566164468987026 0.000000000000000 46 42 29
0.241156162230685 -1.566164468987026 0.042171633265087 43 39 35
0.241156162230685 -1.566164468987026 0.084343266530175 42 34 33
0.241156162230685 -1.566164468987026 0.126514899795262 46 34 28
0.241156162230685 -1.566164468987026 0.168686533060350 69 42 36
0.241156162230685 -1.523992835721939 0.210858166325437 43 34 24
0.241156162230685 -1.523992835721939 0.253029799590525 56 37 29
0.241156162230685 -1.523992835721939 0.295201432855612 69 45 33
0.241156162230685 -1.523992835721939 0.337373066120700 78 51 39
0.241156162230685 -1.523992835721939 0.379544699385787 67 47 38
0.241156162230685 -1.523992835721939 0.421716332650875 40 8 12
0.241156162230685 -1.523992835721939 0.463887965915962 42 8 10
0.241156162230685 -1.523992835721939 0.506059599181049 57 9 11
0.241156162230685 -1.523992835721939 0.548231232446137 59 12 8
0.241156162230685 -1.523992835721939 0.885604298566837 38 20 19
0.241156162230685 -1.523992835721939 1.012119198362099 41 8 7
0.241156162230685 -1.523992835721939 1.054290831627186 45 9 8
0.241156162230685 -1.523992835721939 1.096462464892274 47 7 6
0.241156162230685 -1.523992835721939 1.138634098157361 43 5 7
0.241156162230685 -1.523992835721939 1.180805731422449 60 11 12
0.241156162230685 -1.523992835721939 1.222977364687536 42 4 6
0.241156162230685 -1.481821202456852 0.295201432855612 45 36 37
0.241156162230685 -1.481821202456852 0.337373066120700 49 34 18
0.241156162230685 -1.481821202456852 0.379544699385787 35 11 11
0.241156162230685 -1.481821202456852 0.421716332650875 31 8 8
0.241156162230685 -1.481821202456852 0.463887965915962 31 8 7
0.241156162230685 -1.481821202456852 0.506059599181049 40 9 8
0.241156162230685 -1.481821202456852 0.548231232446137 43 7 5
0.241156162230685 -1.481821202456852 0.590402865711224 48 10 8
0.241156162230685 -1.481821202456852 0.632574498976312 50 11 4
0.241156162230685 -1.481821202456852 0.674746132241399 52 9 7
0.241156162230685 -1.481821202456852 0.716917765506487 55 9 7
0.241156162230685 -1.481821202456852 0.759089398771574 53 9 9
0.241156162230685 -1.481821202456852 0.801261032036662 43 7 10
0.241156162230685 -1.481821202456852 0.843432665301749 44 8 6
0.241156162230685 -1.481821202456852 0.885604298566837 44 7 7
0.241156162230685 -1.481821202456852 0.927775931831924 40 7 5
0.241156162230685 -1.481821202456852 0.969947565097012 45 8 6
0.241156162230685 -1.481821202456852 1.012119198362099 31 6 5
0.241156162230685 -1.481821202456852 1.054290831627186 42 8 5
0.241156162230685 -1.481821202456852 1.096462464892274 46 7 6
0.241156162230685 -1.481821202456852 1.138634098157361 24 5 7
0.241156162230685 -1.481821202456852 1.180805731422449 47 8 11
0.241156162230685 -1.481821202456852 1.222977364687536 107 16 22
0.241156162230685 -1.481821202456852 1.265148997952624 50 14 19
0.241156162230685 -1.439649569191764 0.421716332650875 37 32 40
0.241156162230685 -1.439649569191764 0.463887965915962 27 7 6
0.241156162230685 -1.439649569191764 0.506059599181049 33 7 6
0.241156162230685 -1.439649569191764 0.548231232446137 35 7 7
0.241156162230685 -1.439649569191764 0.590402865711224 36 7 8
0.241156162230685 -1.439649569191764 0.632574498976312 44 8 4
0.241156162230685 -1.439649569191764 0.674746132241399 48 8 7
0.241156162230685 -1.439649569191764 0.716917765506487 45 8 10
0.241156162230685 -1.439649569191764 0.759089398771574 53 10 8
0.241156162230685 -1.439649569191764 0.801261032036662 48 9 6
0.241156162230685 -1.439649569191764 0.843432665301749 43 8 4
0.241156162230685 -1.439649569191764 0.885604298566837 39 9 6
0.241156162230685 -1.439649569191764 0.927775931831924 42 8 6
0.241156162230685 -1.439649569191764 0.969947565097012 46 8 7
0.241156162230685 -1.439649569191764 1.012119198362099 43 8 7
0.241156162230685 -1.439649569191764 1.054290831627186 36 8 6
0.241156162230685 -1.439649569191764 1.096462464892274 38 8 7
0.241156162230685 -1.439649569191764 1.138634098157361 62 13 11
0.241156162230685 -1.439649569191764 1.180805731422449 86 15 9
0.241156162230685 -1.439649569191764 1.222977364687536 58 12 7
0.241156162230685 -1.439649569191764 1.265148997952624 222 149 122
0.241156162230685 -1.439649569191764 1.307320631217711 205 134 107
0.241156162230685 -1.397477935926676 0.421716332650875 48 36 30
0.241156162230685 -1.397477935926676 0.463887965915962 19 5 4
0.241156162230685 -1.397477935926676 0.506059599181049 21 7 4
0.241156162230685 -1.397477935926676 0.548231232446137 27 7 10
0.241156162230685 -1.397477935926676 0.590402865711224 28 6 8
0.241156162230685 -1.397477935926676 0.632574498976312 32 8 9
0.241156162230685 -1.397477935926676 0.674746132241399 35 7 6
0.241156162230685 -1.397477935926676 0.716917765506487 38 7 5
0.241156162230685 -1.397477935926676 0.759089398771574 37 6 7
0.241156162230685 -1.397477935926676 0.801261032036662 40 7 7
0.241156162230685 -1.397477935926676 0.843432665301749 39 7 10
0.241156162230685 -1.397477935926676 0.885604298566837 42 11 7
0.241156162230685 -1.397477935926676 0.927775931831924 36 8 5
0.241156162230685 -1.397477935926676 0.969947565097012 42 7 6
0.241156162230685 -1.397477935926676 1.012119198362099 35 7 5
0.241156162230685 -1.397477935926676 1.054290831627186 29 6 6
0.241156162230685 -1.397477935926676 1.096462464892274 35 7 6
0.241156162230685 -1.397477935926676 1.138634098157361 45 7 5
0.241156162230685 -1.397477935926676 1.180805731422449 65 11 9
0.241156162230685 -1.397477935926676 1.222977364687536 65 9 7
0.241156162230685 -1.397477935926676 1.265148997952624 74 14 12
0.241156162230685 -1.397477935926676 1.307320631217711 216 138 103
0.241156162230685 -1.397477935926676 1.349492264482799 227 135 100
0.241156162230685 -1.355306302661589 0.463887965915962 38 7 7
0.241156162230685 -1.355306302661589 0.506059599181049 28 6 3
0.241156162230685 -1.355306302661589 0.548231232446137 19 3 3
0.241156162230685 -1.355306302661589 0.590402865711224 26 7 8
0.241156162230685 -1.355306302661589 0.632574498976312 25 4 6
0.241156162230685 -1.355306302661589 0.674746132241399 29 6 4
0.241156162230685 -1.355306302661589 0.716917765506487 28 7 6
0.241156162230685 -1.355306302661589 0.759089398771574 29 6 7
0.241156162230685 -1.355306302661589 0.801261032036662 31 7 5
0.241156162230685 -1.355306302661589 0.843432665301749 30 6 8
0.241156162230685 -1.355306302661589 0.885604298566837 31 7 1
0.241156162230685 -1.355306302661589 0.927775931831924 30 6 4
0.241156162230685 -1.355306302661589 0.969947565097012 28 7 4
0.241156162230685 -1.355306302661589 1.012119198362099 25 6 4
0.241156162230685 -1.355306302661589 1.054290831627186 26 7 11
0.241156162230685 -1.355306302661589 1.096462464892274 45 10 8
0.241156162230685 -1.355306302661589 1.138634098157361 35 16 11
0.241156162230685 -1.355306302661589 1.180805731422449 66 11 8
0.241156162230685 -1.355306302661589 1.222977364687536 96 14 8
0.241156162230685 -1.355306302661589 1.265148997952624 52 9 3
0.241156162230685 -1.355306302661589 1.307320631217711 135 83 70
0.241156162230685 -1.355306302661589 1.349492264482799 180 108 76
0.241156162230685 -1.355306302661589 1.391663897747886 161 124 106
0.241156162230685 -1.355306302661589 1.433835531012974 255 153 117
0.241156162230685 -1.313134669396502 0.674746132241399 105 52 61
0.241156162230685 -1.313134669396502 0.716917765506487 146 88 73
0.241156162230685 -1.313134669396502 0.759089398771574 172 108 92
0.241156162230685 -1.313134669396502 0.801261032036662 173 104 85
0.241156162230685 -1.313134669396502 0.843432665301749 158 94 73
0.241156162230685 -1.313134669396502 0.885604298566837 133 76 61
0.241156162230685 -1.313134669396502 0.927775931831924 131 78 63
0.241156162230685 -1.313134669396502 0.969947565097012 127 66 46
0.241156162230685 -1.313134669396502 1.096462464892274 28 9 10
0.241156162230685 -1.313134669396502 1.138634098157361 51 35 35
0.241156162230685 -1.313134669396502 1.180805731422449 79 14 12
0.241156162230685 -1.313134669396502 1.222977364687536 75 13 10
0.241156162230685 -1.313134669396502 1.265148997952624 65 11 9
0.241156162230685 -1.313134669396502 1.307320631217711 84 53 37
0.241156162230685 -1.313134669396502 1.349492264482799 129 79 60
0.241156162230685 -1.313134669396502 1.391663897747886 133 89 68
0.241156162230685 -1.313134669396502 1.433835531012974 201 111 86
0.241156162230685 -1.313134669396502 1.476007164278061 159 77 58
0.241156162230685 -1.313134669396502 1.518178797543148 87 46 25
0.241156162230685 -1.313134669396502 1.560350430808236 77 79 58
0.241156162230685 -1.270963036131414 0.759089398771574 220 134 102
0.241156162230685 -1.270963036131414 0.801261032036662 211 124 96
0.241156162230685 -1.270963036131414 0.843432665301749 121 72 57
0.241156162230685 -1.270963036131414 0.885604298566837 84 50 39
0.241156162230685 -1.270963036131414 1.138634098157361 126 77 63
0.241156162230685 -1.270963036131414 1.180805731422449 137 74 39
0.241156162230685 -1.270963036131414 1.222977364687536 66 10 10
0.241156162230685 -1.270963036131414 1.265148997952624 46 9 8
0.241156162230685 -1.270963036131414 1.307320631217711 50 30 23
0.241156162230685 -1.270963036131414 1.349492264482799 75 48 33
0.241156162230685 -1.270963036131414 1.391663897747886 182 88 73
0.241156162230685 -1.270963036131414 1.433835531012974 51 37 28
0.241156162230685 -1.270963036131414 1.476007164278061 182 107 78
0.241156162230685 -1.270963036131414 1.518178797543148 150 119 95
0.241156162230685 -1.270963036131414 1.560350430808236 39 30 21
0.241156162230685 -1.270963036131414 1.602522064073324 72 44 33
0.241156162230685 -1.228791402866327 1.222977364687536 158 83 69
0.241156162230685 -1.228791402866327 1.265148997952624 65 11 9
0.241156162230685 -1.228791402866327 1.307320631217711 57 7 11
0.241156162230685 -1.228791402866327 1.349492264482799 57 41 31
0.241156162230685 -1.228791402866327 1.391663897747886 49 20 14
0.241156162230685 -1.228791402866327 1.433835531012974 124 70 57
0.241156162230685 -1.228791402866327 1.476007164278061 171 100 78
0.241156162230685 -1.228791402866327 1.518178797543148 37 25 21
0.241156162230685 -1.228791402866327 1.560350430808236 42 33 31
0.241156162230685 -1.228791402866327 1.602522064073324 42 29 23
0.241156162230685 -1.186619769601239 1.476007164278061 54 25 21
0.241156162230685 -1.186619769601239 1.518178797543148 31 20 19
0.241156162230685 -1.186619769601239 1.560350430808236 31 22 15
0.241156162230685 -1.186619769601239 1.602522064073324 38 24 26
0.241156162230685 -1.144448136336152 1.476007164278061 18 15 0
0.241156162230685 -1.144448136336152 1.518178797543148 29 20 16
0.241156162230685 -1.144448136336152 1.560350430808236 52 31 23
0.283327795495772 -1.608336102252114 0.042171633265087 100 61 43
0.283327795495772 -1.608336102252114 0.084343266530175 107 73 57
0.283327795495772 -1.566164468987026 0.042171633265087 42 36 35
0.283327795495772 -1.566164468987026 0.084343266530175 50 34 28
0.283327795495772 -1.566164468987026 0.126514899795262 69 50 41
0.283327795495772 -1.566164468987026 0.168686533060350 79 55 40
0.283327795495772 -1.566164468987026 0.210858166325437 77 53 42
0.283327795495772 -1.523992835721939 0.168686533060350 46 35 27
0.283327795495772 -1.523992835721939 0.210858166325437 56 41 34
0.283327795495772 -1.523992835721939 0.253029799590525 69 47 33
0.283327795495772 -1.523992835721939 0.295201432855612 73 52 40
0.283327795495772 -1.523992835721939 0.337373066120700 67 47 38
0.283327795495772 -1.523992835721939 0.379544699385787 40 8 4
0.283327795495772 -1.523992835721939 0.421716332650875 42 8 10
0.283327795495772 -1.523992835721939 0.463887965915962 64 12 11
0.283327795495772 -1.523992835721939 0.506059599181049 60 11 8
0.283327795495772 -1.523992835721939 0.548231232446137 61 22 11
0.283327795495772 -1.523992835721939 0.590402865711224 59 25 11
0.283327795495772 -1.523992835721939 0.885604298566837 33 8 9
0.283327795495772 -1.523992835721939 0.927775931831924 38 7 4
0.283327795495772 -1.523992835721939 0.969947565097012 41 7 7
0.283327795495772 -1.523992835721939 1.012119198362099 45 8 8
0.283327795495772 -1.523992835721939 1.054290831627186 37 7 6
0.283327795495772 -1.523992835721939 1.096462464892274 43 5 7
0.283327795495772 -1.523992835721939 1.138634098157361 63 13 9
0.283327795495772 -1.523992835721939 1.180805731422449 40 7 8
0.283327795495772 -1.523992835721939 1.222977364687536 36 7 6
0.283327795495772 -1.523992835721939 1.265148997952624 59 20 14
0.283327795495772 -1.523992835721939 1.307320631217711 68 33 11
0.283327795495772 -1.481821202456852 0.253029799590525 45 32 24
0.283327795495772 -1.481821202456852 0.295201432855612 49 35 29
0.283327795495772 -1.481821202456852 0.337373066120700 35 5 7
0.283327795495772 -1.481821202456852 0.379544699385787 30 6 4
0.283327795495772 -1.481821202456852 0.421716332650875 31 7 7
0.283327795495772 -1.481821202456852 0.463887965915962 40 8 7
0.283327795495772 -1.481821202456852 0.506059599181049 43 9 11
0.283327795495772 -1.481821202456852 0.548231232446137 48 10 8
0.283327795495772 -1.481821202456852 0.590402865711224 50 11 4
0.283327795495772 -1.481821202456852 0.632574498976312 52 9 7
0.283327795495772 -1.481821202456852 0.674746132241399 53 12 7
0.283327795495772 -1.481821202456852 0.716917765506487 52 10 9
0.283327795495772 -1.481821202456852 0.759089398771574 47 7 10
0.283327795495772 -1.481821202456852 0.801261032036662 44 7 6
0.283327795495772 -1.481821202456852 0.843432665301749 41 7 0
0.283327795495772 -1.481821202456852 0.885604298566837 37 8 5
0.283327795495772 -1.481821202456852 0.927775931831924 41 11 6
0.283327795495772 -1.481821202456852 0.969947565097012 34 8 8
0.283327795495772 -1.481821202456852 1.012119198362099 49 8 5
0.283327795495772 -1.481821202456852 1.054290831627186 36 7 7
0.283327795495772 -1.481821202456852 1.096462464892274 29 7 7
0.283327795495772 -1.481821202456852 1.138634098157361 49 10 10
0.283327795495772 -1.481821202456852 1.180805731422449 103 17 16
0.283327795495772 -1.481821202456852 1.222977364687536 45 20 29
0.283327795495772 -1.481821202456852 1.265148997952624 64 10 11
0.283327795495772 -1.481821202456852 1.307320631217711 60 10 11
0.283327795495772 -1.439649569191764 0.337373066120700 53 50 37
0.283327795495772 -1.439649569191764 0.379544699385787 37 9 9
0.283327795495772 -1.439649569191764 0.421716332650875 27 6 7
0.283327795495772 -1.439649569191764 0.463887965915962 33 8 7
0.283327795495772 -1.439649569191764 0.506059599181049 35 7 7
0.283327795495772 -1.439649569191764 0.548231232446137 36 7 8
0.283327795495772 -1.439649569191764 0.590402865711224 44 8 6
0.283327795495772 -1.439649569191764 0.632574498976312 48 9 7
0.283327795495772 -1.439649569191764 0.674746132241399 45 8 6
0.283327795495772 -1.439649569191764 0.716917765506487 53 8 7
0.283327795495772 -1.439649569191764 0.759089398771574 48 7 10
0.283327795495772 -1.439649569191764 0.801261032036662 43 8 8
0.283327795495772 -1.439649569191764 0.843432665301749 45 7 7
0.283327795495772 -1.439649569191764 0.885604298566837 44 8 7
0.283327795495772 -1.439649569191764 0.927775931831924 46 7 5
0.283327795495772 -1.439649569191764 0.969947565097012 37 6 5
0.283327795495772 -1.439649569191764 1.012119198362099 36 7 7
0.283327795495772 -1.439649569191764 1.054290831627186 39 8 7
0.283327795495772 -1.439649569191764 1.096462464892274 62 11 10
0.283327795495772 -1.439649569191764 1.138634098157361 90 16 13
0.283327795495772 -1.439649569191764 1.180805731422449 58 9 8
0.283327795495772 -1.439649569191764 1.222977364687536 162 93 107
0.283327795495772 -1.439649569191764 1.265148997952624 204 121 99
0.283327795495772 -1.439649569191764 1.307320631217711 168 55 64
0.283327795495772 -1.439649569191764 1.349492264482799 104 16 10
0.283327795495772 -1.397477935926676 0.421716332650875 19 4 4
0.283327795495772 -1.397477935926676 0.463887965915962 21 6 5
0.283327795495772 -1.397477935926676 0.506059599181049 27 8 8
0.283327795495772 -1.397477935926676 0.548231232446137 31 7 5
0.283327795495772 -1.397477935926676 0.590402865711224 37 9 9
0.283327795495772 -1.397477935926676 0.632574498976312 37 7 7
0.283327795495772 -1.397477935926676 0.674746132241399 39 8 5
0.283327795495772 -1.397477935926676 0.716917765506487 43 8 7
0.283327795495772 -1.397477935926676 0.759089398771574 41 9 7
0.283327795495772 -1.397477935926676 0.801261032036662 37 7 10
0.283327795495772 -1.397477935926676 0.843432665301749 44 8 7
0.283327795495772 -1.397477935926676 0.885604298566837 38 8 8
0.283327795495772 -1.397477935926676 0.927775931831924 42 8 6
0.283327795495772 -1.397477935926676 0.969947565097012 32 10 5
0.283327795495772 -1.397477935926676 1.012119198362099 30 8 6
0.283327795495772 -1.397477935926676 1.054290831627186 26 6 6
0.283327795495772 -1.397477935926676 1.096462464892274 39 8 10
0.283327795495772 -1.397477935926676 1.138634098157361 77 13 11
0.283327795495772 -1.397477935926676 1.180805731422449 59 12 7
0.283327795495772 -1.397477935926676 1.222977364687536 104 17 13
0.283327795495772 -1.397477935926676 1.265148997952624 214 137 109
0.283327795495772 -1.397477935926676 1.307320631217711 230 148 111
0.283327795495772 -1.397477935926676 1.349492264482799 221 133 108
0.283327795495772 -1.397477935926676 1.391663897747886 101 14 12
0.283327795495772 -1.355306302661589 0.421716332650875 37 9 7
0.283327795495772 -1.355306302661589 0.463887965915962 29 6 3
0.283327795495772 -1.355306302661589 0.506059599181049 24 7 3
0.283327795495772 -1.355306302661589 0.548231232446137 28 8 8
0.283327795495772 -1.355306302661589 0.590402865711224 25 7 6
0.283327795495772 -1.355306302661589 0.632574498976312 32 7 4
0.283327795495772 -1.355306302661589 0.674746132241399 35 7 6
0.283327795495772 -1.355306302661589 0.716917765506487 31 7 7
0.283327795495772 -1.355306302661589 0.759089398771574 35 7 5
0.283327795495772 -1.355306302661589 0.801261032036662 34 7 8
0.283327795495772 -1.355306302661589 0.843432665301749 31 6 7
0.283327795495772 -1.355306302661589 0.885604298566837 29 5 5
0.283327795495772 -1.355306302661589 0.927775931831924 28 7 5
0.283327795495772 -1.355306302661589 0.969947565097012 25 6 5
0.283327795495772 -1.355306302661589 1.012119198362099 26 6 7
0.283327795495772 -1.355306302661589 1.054290831627186 45 10 7
0.283327795495772 -1.355306302661589 1.096462464892274 39 8 5
0.283327795495772 -1.355306302661589 1.138634098157361 63 11 10
0.283327795495772 -1.355306302661589 1.180805731422449 93 15 11
0.283327795495772 -1.355306302661589 1.222977364687536 48 9 7
0.283327795495772 -1.355306302661589 1.265148997952624 162 87 66
0.283327795495772 -1.355306302661589 1.307320631217711 190 116 88
0.283327795495772 -1.355306302661589 1.349492264482799 188 131 96
0.283327795495772 -1.355306302661589 1.391663897747886 255 159 134
0.283327795495772 -1.355306302661589 1.433835531012974 97 14 12
0.283327795495772 -1.313134669396502 0.463887965915962 34 7 4
0.283327795495772 -1.313134669396502 0.506059599181049 36 9 5
0.283327795495772 -1.313134669396502 0.548231232446137 35 10 4
0.283327795495772 -1.313134669396502 0.590402865711224 37 8 4
0.283327795495772 -1.313134669396502 0.632574498976312 40 12 19
0.283327795495772 -1.313134669396502 0.674746132241399 146 71 47
0.283327795495772 -1.313134669396502 0.716917765506487 172 91 66
0.283327795495772 -1.313134669396502 0.759089398771574 173 98 74
0.283327795495772 -1.313134669396502 0.801261032036662 158 98 71
0.283327795495772 -1.313134669396502 0.843432665301749 134 79 60
0.283327795495772 -1.313134669396502 0.885604298566837 115 41 38
0.283327795495772 -1.313134669396502 0.927775931831924 87 48 54
0.283327795495772 -1.313134669396502 0.969947565097012 51 10 15
0.283327795495772 -1.313134669396502 1.012119198362099 52 22 28
0.283327795495772 -1.313134669396502 1.054290831627186 17 13 13
0.283327795495772 -1.313134669396502 1.096462464892274 33 17 14
0.283327795495772 -1.313134669396502 1.138634098157361 68 14 8
0.283327795495772 -1.313134669396502 1.180805731422449 75 13 14
0.283327795495772 -1.313134669396502 1.222977364687536 73 8 12
0.283327795495772 -1.313134669396502 1.265148997952624 81 45 46
0.283327795495772 -1.313134669396502 1.307320631217711 99 54 43
0.283327795495772 -1.313134669396502 1.349492264482799 132 77 65
0.283327795495772 -1.313134669396502 1.391663897747886 142 95 72
0.283327795495772 -1.313134669396502 1.433835531012974 172 86 75
0.283327795495772 -1.313134669396502 1.476007164278061 167 69 41
0.283327795495772 -1.270963036131414 0.674746132241399 223 128 104
0.283327795495772 -1.270963036131414 0.716917765506487 230 132 104
0.283327795495772 -1.270963036131414 0.759089398771574 215 130 99
0.283327795495772 -1.270963036131414 0.801261032036662 115 77 57
0.283327795495772 -1.270963036131414 0.843432665301749 89 48 40
0.283327795495772 -1.270963036131414 0.885604298566837 119 71 52
0.283327795495772 -1.270963036131414 0.927775931831924 134 81 60
0.283327795495772 -1.270963036131414 1.180805731422449 67 12 10
0.283327795495772 -1.270963036131414 1.222977364687536 46 8 11
0.283327795495772 -1.270963036131414 1.265148997952624 47 23 19
0.283327795495772 -1.270963036131414 1.307320631217711 52 22 28
0.283327795495772 -1.270963036131414 1.349492264482799 174 75 60
0.283327795495772 -1.270963036131414 1.391663897747886 57 35 47
0.283327795495772 -1.270963036131414 1.433835531012974 139 77 47
0.283327795495772 -1.270963036131414 1.476007164278061 142 93 87
0.283327795495772 -1.270963036131414 1.518178797543148 39 28 18
0.283327795495772 -1.270963036131414 1.560350430808236 70 42 34
0.283327795495772 -1.270963036131414 1.602522064073324 47 60 39
0.283327795495772 -1.228791402866327 1.265148997952624 44 8 9
0.283327795495772 -1.228791402866327 1.307320631217711 49 35 27
0.283327795495772 -1.228791402866327 1.349492264482799 65 39 31
0.283327795495772 -1.228791402866327 1.391663897747886 102 60 49
0.283327795495772 -1.228791402866327 1.433835531012974 163 91 65
0.283327795495772 -1.228791402866327 1.518178797543148 41 28 24
0.283327795495772 -1.228791402866327 1.560350430808236 43 33 28
0.283327795495772 -1.228791402866327 1.602522064073324 32 22 16
0.283327795495772 -1.186619769601239 1.518178797543148 35 27 24
0.283327795495772 -1.186619769601239 1.560350430808236 34 24 19
0.283327795495772 -1.186619769601239 1.602522064073324 45 23 18
0.283327795495772 -1.144448136336152 1.518178797543148 33 25 24
0.283327795495772 -1.144448136336152 1.560350430808236 25 20 19
0.283327795495772 -1.144448136336152 1.602522064073324 64 78 66
0.325499428760860 -1.523992835721939 0.337373066120700 33 9 4
0.325499428760860 -1.523992835721939 0.421716332650875 64 12 10
0.325499428760860 -1.523992835721939 0.463887965915962 60 11 8
0.325499428760860 -1.523992835721939 0.506059599181049 61 22 11
0.325499428760860 -1.523992835721939 0.548231232446137 59 57 36
0.325499428760860 -1.523992835721939 0.927775931831924 30 6 9
0.325499428760860 -1.523992835721939 0.969947565097012 39 8 8
0.325499428760860 -1.523992835721939 1.012119198362099 30 7 8
0.325499428760860 -1.523992835721939 1.054290831627186 34 6 7
0.325499428760860 -1.523992835721939 1.096462464892274 63 5 6
0.325499428760860 -1.523992835721939 1.138634098157361 31 7 8
0.325499428760860 -1.523992835721939 1.180805731422449 47 8 10
0.325499428760860 -1.523992835721939 1.222977364687536 59 21 11
0.325499428760860 -1.523992835721939 1.265148997952624 70 73 65
0.325499428760860 -1.481821202456852 0.379544699385787 43 9 7
0.325499428760860 -1.481821202456852 0.421716332650875 45 9 7
0.325499428760860 -1.481821202456852 0.463887965915962 47 10 11
0.325499428760860 -1.481821202456852 0.506059599181049 53 11 8
0.325499428760860 -1.481821202456852 0.548231232446137 56 12 4
0.325499428760860 -1.481821202456852 0.590402865711224 60 11 7
0.325499428760860 -1.481821202456852 0.632574498976312 53 12 7
0.325499428760860 -1.481821202456852 0.674746132241399 52 10 9
0.325499428760860 -1.481821202456852 0.716917765506487 47 7 10
0.325499428760860 -1.481821202456852 0.759089398771574 40 7 6
0.325499428760860 -1.481821202456852 0.801261032036662 41 7 12
0.325499428760860 -1.481821202456852 0.843432665301749 37 8 7
0.325499428760860 -1.481821202456852 0.885604298566837 41 7 0
0.325499428760860 -1.481821202456852 0.927775931831924 38 7 6
0.325499428760860 -1.481821202456852 0.969947565097012 49 9 11
0.325499428760860 -1.481821202456852 1.012119198362099 38 7 7
0.325499428760860 -1.481821202456852 1.054290831627186 29 8 7
0.325499428760860 -1.481821202456852 1.096462464892274 55 8 6
0.325499428760860 -1.481821202456852 1.138634098157361 103 16 12
0.325499428760860 -1.481821202456852 1.180805731422449 42 8 11
0.325499428760860 -1.481821202456852 1.222977364687536 62 10 9
0.325499428760860 -1.481821202456852 1.265148997952624 60 10 8
0.325499428760860 -1.481821202456852 1.307320631217711 61 13 8
0.325499428760860 -1.439649569191764 0.506059599181049 40 9 8
0.325499428760860 -1.439649569191764 0.548231232446137 46 10 6
0.325499428760860 -1.439649569191764 0.590402865711224 50 10 7
0.325499428760860 -1.439649569191764 0.632574498976312 49 9 6
0.325499428760860 -1.439649569191764 0.674746132241399 54 10 7
0.325499428760860 -1.439649569191764 0.716917765506487 46 10 10
0.325499428760860 -1.439649569191764 0.759089398771574 49 8 10
0.325499428760860 -1.439649569191764 0.801261032036662 47 6 4
0.325499428760860 -1.439649569191764 0.843432665301749 41 9 7
0.325499428760860 -1.439649569191764 0.885604298566837 49 9 5
0.325499428760860 -1.439649569191764 0.927775931831924 36 7 7
0.325499428760860 -1.439649569191764 0.969947565097012 41 8 7
0.325499428760860 -1.439649569191764 1.012119198362099 34 9 12
0.325499428760860 -1.439649569191764 1.054290831627186 49 10 7
0.325499428760860 -1.439649569191764 1.096462464892274 89 16 14
0.325499428760860 -1.439649569191764 1.138634098157361 54 9 10
0.325499428760860 -1.439649569191764 1.180805731422449 181 69 39
0.325499428760860 -1.439649569191764 1.222977364687536 194 116 99
0.325499428760860 -1.439649569191764 1.265148997952624 146 111 98
0.325499428760860 -1.439649569191764 1.307320631217711 71 12 5
0.325499428760860 -1.439649569191764 1.349492264482799 71 14 16
0.325499428760860 -1.397477935926676 0.463887965915962 30 8 8
0.325499428760860 -1.397477935926676 0.506059599181049 32 4 3
0.325499428760860 -1.397477935926676 0.548231232446137 37 7 13
0.325499428760860 -1.397477935926676 0.590402865711224 37 7 7
0.325499428760860 -1.397477935926676 0.632574498976312 39 7 5
0.325499428760860 -1.397477935926676 0.674746132241399 43 8 7
0.325499428760860 -1.397477935926676 0.716917765506487 41 8 6
0.325499428760860 -1.397477935926676 0.759089398771574 37 7 8
0.325499428760860 -1.397477935926676 0.801261032036662 45 8 8
0.325499428760860 -1.397477935926676 0.843432665301749 38 7 8
0.325499428760860 -1.397477935926676 0.885604298566837 42 8 1
0.325499428760860 -1.397477935926676 0.927775931831924 32 5 7
0.325499428760860 -1.397477935926676 0.969947565097012 35 7 6
0.325499428760860 -1.397477935926676 1.012119198362099 26 7 7
0.325499428760860 -1.397477935926676 1.054290831627186 47 8 6
0.325499428760860 -1.397477935926676 1.096462464892274 77 14 9
0.325499428760860 -1.397477935926676 1.138634098157361 64 8 8
0.325499428760860 -1.397477935926676 1.180805731422449 102 15 19
0.325499428760860 -1.397477935926676 1.222977364687536 175 144 124
0.325499428760860 -1.397477935926676 1.265148997952624 226 134 108
0.325499428760860 -1.397477935926676 1.307320631217711 237 151 121
0.325499428760860 -1.397477935926676 1.349492264482799 105 14 18
0.325499428760860 -1.397477935926676 1.391663897747886 85 14 14
0.325499428760860 -1.355306302661589 0.463887965915962 28 6 7
0.325499428760860 -1.355306302661589 0.506059599181049 28 7 3
0.325499428760860 -1.355306302661589 0.548231232446137 25 5 5
0.325499428760860 -1.355306302661589 0.590402865711224 32 6 7
0.325499428760860 -1.355306302661589 0.632574498976312 35 6 6
0.325499428760860 -1.355306302661589 0.674746132241399 33 8 7
0.325499428760860 -1.355306302661589 0.716917765506487 34 7 6
0.325499428760860 -1.355306302661589 0.759089398771574 34 6 3
0.325499428760860 -1.355306302661589 0.801261032036662 38 8 5
0.325499428760860 -1.355306302661589 0.843432665301749 29 6 5
0.325499428760860 -1.355306302661589 0.885604298566837 29 6 5
0.325499428760860 -1.355306302661589 0.927775931831924 29 4 5
0.325499428760860 -1.355306302661589 0.969947565097012 31 7 4
0.325499428760860 -1.355306302661589 1.012119198362099 28 9 7
0.325499428760860 -1.355306302661589 1.054290831627186 45 11 10
0.325499428760860 -1.355306302661589 1.096462464892274 66 11 10
0.325499428760860 -1.355306302661589 1.138634098157361 92 15 12
0.325499428760860 -1.355306302661589 1.180805731422449 49 9 8
0.325499428760860 -1.355306302661589 1.222977364687536 162 50 40
0.325499428760860 -1.355306302661589 1.265148997952624 173 104 89
0.325499428760860 -1.355306302661589 1.307320631217711 134 102 90
0.325499428760860 -1.355306302661589 1.349492264482799 255 158 131
0.325499428760860 -1.355306302661589 1.391663897747886 108 17 16
0.325499428760860 -1.355306302661589 1.433835531012974 95 19 7
0.325499428760860 -1.313134669396502 0.463887965915962 36 8 1
0.325499428760860 -1.313134669396502 0.506059599181049 35 6 10
0.325499428760860 -1.313134669396502 0.548231232446137 37 8 8
0.325499428760860 -1.313134669396502 0.590402865711224 40 7 2
0.325499428760860 -1.313134669396502 0.632574498976312 70 12 7
0.325499428760860 -1.313134669396502 0.674746132241399 115 32 21
0.325499428760860 -1.313134669396502 0.716917765506487 144 90 78
0.325499428760860 -1.313134669396502 0.759089398771574 146 92 73
0.325499428760860 -1.313134669396502 0.801261032036662 99 51 60
0.325499428760860 -1.313134669396502 0.843432665301749 62 19 38
0.325499428760860 -1.313134669396502 0.885604298566837 47 9 11
0.325499428760860 -1.313134669396502 0.927775931831924 48 8 5
0.325499428760860 -1.313134669396502 0.969947565097012 49 6 8
0.325499428760860 -1.313134669396502 1.012119198362099 17 5 4
0.325499428760860 -1.313134669396502 1.054290831627186 34 16 15
0.325499428760860 -1.313134669396502 1.096462464892274 59 21 13
0.325499428760860 -1.313134669396502 1.138634098157361 87 13 12
0.325499428760860 -1.313134669396502 1.180805731422449 65 11 9
0.325499428760860 -1.313134669396502 1.222977364687536 73 40 34
0.325499428760860 -1.313134669396502 1.265148997952624 103 60 48
0.325499428760860 -1.313134669396502 1.307320631217711 105 65 46
0.325499428760860 -1.313134669396502 1.349492264482799 132 77 67
0.325499428760860 -1.313134669396502 1.391663897747886 185 120 87
0.325499428760860 -1.313134669396502 1.433835531012974 175 102 87
0.325499428760860 -1.270963036131414 0.463887965915962 181 93 84
0.325499428760860 -1.270963036131414 0.506059599181049 200 109 89
0.325499428760860 -1.270963036131414 0.548231232446137 201 118 94
0.325499428760860 -1.270963036131414 0.590402865711224 207 120 92
0.325499428760860 -1.270963036131414 0.632574498976312 213 130 104
0.325499428760860 -1.270963036131414 0.674746132241399 227 138 104
0.325499428760860 -1.270963036131414 0.716917765506487 218 124 99
0.325499428760860 -1.270963036131414 0.759089398771574 143 71 55
0.325499428760860 -1.270963036131414 0.801261032036662 101 62 42
0.325499428760860 -1.270963036131414 0.843432665301749 119 76 60
0.325499428760860 -1.270963036131414 0.885604298566837 134 79 58
0.325499428760860 -1.270963036131414 0.927775931831924 135 77 59
0.325499428760860 -1.270963036131414 1.180805731422449 45 9 7
0.325499428760860 -1.270963036131414 1.222977364687536 41 7 7
0.325499428760860 -1.270963036131414 1.265148997952624 59 37 30
0.325499428760860 -1.270963036131414 1.307320631217711 147 87 70
0.325499428760860 -1.270963036131414 1.349492264482799 124 79 62
0.325499428760860 -1.270963036131414 1.391663897747886 103 60 43
0.325499428760860 -1.270963036131414 1.433835531012974 173 99 77
0.325499428760860 -1.270963036131414 1.560350430808236 49 69 65
0.325499428760860 -1.228791402866327 1.307320631217711 82 48 33
0.325499428760860 -1.228791402866327 1.349492264482799 109 80 76
0.325499428760860 -1.228791402866327 1.391663897747886 163 94 75
0.325499428760860 -1.228791402866327 1.433835531012974 185 123 109
0.325499428760860 -1.228791402866327 1.518178797543148 42 31 26
0.325499428760860 -1.228791402866327 1.560350430808236 41 31 29
0.325499428760860 -1.228791402866327 1.602522064073324 63 75 59
0.325499428760860 -1.186619769601239 1.560350430808236 45 24 16
0.367671062025947 -1.523992835721939 0.885604298566837 30 6 9
0.367671062025947 -1.523992835721939 0.927775931831924 39 6 5
0.367671062025947 -1.523992835721939 0.969947565097012 37 3 4
0.367671062025947 -1.523992835721939 1.012119198362099 34 5 9
0.367671062025947 -1.523992835721939 1.054290831627186 43 10 16
0.367671062025947 -1.523992835721939 1.096462464892274 31 7 8
0.367671062025947 -1.523992835721939 1.138634098157361 58 11 10
0.367671062025947 -1.523992835721939 1.180805731422449 55 10 8
0.367671062025947 -1.481821202456852 0.548231232446137 60 13 9
0.367671062025947 -1.481821202456852 0.590402865711224 53 10 6
0.367671062025947 -1.481821202456852 0.632574498976312 52 9 8
0.367671062025947 -1.481821202456852 0.674746132241399 47 8 8
0.367671062025947 -1.481821202456852 0.716917765506487 40 7 6
0.367671062025947 -1.481821202456852 0.759089398771574 41 8 12
0.367671062025947 -1.481821202456852 0.801261032036662 40 8 7
0.367671062025947 -1.481821202456852 0.843432665301749 39 8 6
0.367671062025947 -1.481821202456852 0.885604298566837 40 9 6
0.367671062025947 -1.481821202456852 0.927775931831924 42 9 11
0.367671062025947 -1.481821202456852 0.969947565097012 33 8 8
0.367671062025947 -1.481821202456852 1.012119198362099 47 8 3
0.367671062025947 -1.481821202456852 1.054290831627186 51 8 9
0.367671062025947 -1.481821202456852 1.096462464892274 49 6 6
0.367671062025947 -1.481821202456852 1.138634098157361 74 21 9
0.367671062025947 -1.481821202456852 1.180805731422449 62 12 8
0.367671062025947 -1.481821202456852 1.222977364687536 43 7 4
0.367671062025947 -1.481821202456852 1.265148997952624 66 10 7
0.367671062025947 -1.481821202456852 1.307320631217711 64 14 9
0.367671062025947 -1.439649569191764 0.506059599181049 46 7 17
0.367671062025947 -1.439649569191764 0.548231232446137 44 9 10
0.367671062025947 -1.439649569191764 0.590402865711224 47 8 7
0.367671062025947 -1.439649569191764 0.632574498976312 53 10 8
0.367671062025947 -1.439649569191764 0.674746132241399 54 7 6
0.367671062025947 -1.439649569191764 0.716917765506487 49 9 8
0.367671062025947 -1.439649569191764 0.759089398771574 47 9 11
0.367671062025947 -1.439649569191764 0.801261032036662 41 7 6
0.367671062025947 -1.439649569191764 0.843432665301749 49 9 8
0.367671062025947 -1.439649569191764 0.885604298566837 38 7 7
0.367671062025947 -1.439649569191764 0.927775931831924 41 9 6
0.367671062025947 -1.439649569191764 0.969947565097012 34 6 5
0.367671062025947 -1.439649569191764 1.012119198362099 50 10 7
0.367671062025947 -1.439649569191764 1.054290831627186 89 14 13
0.367671062025947 -1.439649569191764 1.096462464892274 65 9 9
0.367671062025947 -1.439649569191764 1.138634098157361 123 39 14
0.367671062025947 -1.439649569191764 1.180805731422449 208 126 89
0.367671062025947 -1.439649569191764 1.222977364687536 197 104 99
0.367671062025947 -1.439649569191764 1.265148997952624 79 12 12
0.367671062025947 -1.439649569191764 1.307320631217711 81 11 6
0.367671062025947 -1.439649569191764 1.349492264482799 122 18 21
0.367671062025947 -1.397477935926676 0.463887965915962 32 7 8
0.367671062025947 -1.397477935926676 0.506059599181049 37 9 8
0.367671062025947 -1.397477935926676 0.548231232446137 39 8 5
0.367671062025947 -1.397477935926676 0.590402865711224 42 8 5
0.367671062025947 -1.397477935926676 0.632574498976312 45 8 7
0.367671062025947 -1.397477935926676 0.674746132241399 47 9 9
0.367671062025947 -1.397477935926676 0.716917765506487 41 8 8
0.367671062025947 -1.397477935926676 0.759089398771574 42 9 8
0.367671062025947 -1.397477935926676 0.801261032036662 38 8 8
0.367671062025947 -1.397477935926676 0.843432665301749 43 9 1
0.367671062025947 -1.397477935926676 0.885604298566837 32 8 5
0.367671062025947 -1.397477935926676 0.927775931831924 33 9 13
0.367671062025947 -1.397477935926676 0.969947565097012 30 8 7
0.367671062025947 -1.397477935926676 1.012119198362099 44 8 8
0.367671062025947 -1.397477935926676 1.054290831627186 82 15 9
0.367671062025947 -1.397477935926676 1.096462464892274 56 9 8
0.367671062025947 -1.397477935926676 1.138634098157361 103 18 19
0.367671062025947 -1.397477935926676 1.180805731422449 228 144 119
0.367671062025947 -1.397477935926676 1.222977364687536 219 139 122
0.367671062025947 -1.397477935926676 1.265148997952624 248 156 125
0.367671062025947 -1.397477935926676 1.307320631217711 101 18 12
0.367671062025947 -1.397477935926676 1.349492264482799 108 21 15
0.367671062025947 -1.397477935926676 1.391663897747886 79 17 15
0.367671062025947 -1.397477935926676 1.433835531012974 209 135 116
0.367671062025947 -1.355306302661589 0.421716332650875 28 7 6
0.367671062025947 -1.355306302661589 0.463887965915962 25 7 3
0.367671062025947 -1.355306302661589 0.506059599181049 25 7 5
0.367671062025947 -1.355306302661589 0.548231232446137 34 9 7
0.367671062025947 -1.355306302661589 0.590402865711224 35 7 6
0.367671062025947 -1.355306302661589 0.632574498976312 34 6 7
0.367671062025947 -1.355306302661589 0.674746132241399 35 7 6
0.367671062025947 -1.355306302661589 0.716917765506487 34 7 3
0.367671062025947 -1.355306302661589 0.759089398771574 40 8 5
0.367671062025947 -1.355306302661589 0.801261032036662 32 7 5
0.367671062025947 -1.355306302661589 0.843432665301749 34 7 10
0.367671062025947 -1.355306302661589 0.885604298566837 29 4 5
0.367671062025947 -1.355306302661589 0.927775931831924 33 7 6
0.367671062025947 -1.355306302661589 0.969947565097012 28 6 3
0.367671062025947 -1.355306302661589 1.012119198362099 56 9 7
0.367671062025947 -1.355306302661589 1.054290831627186 56 11 7
0.367671062025947 -1.355306302661589 1.096462464892274 72 12 6
0.367671062025947 -1.355306302661589 1.138634098157361 66 9 11
0.367671062025947 -1.355306302661589 1.180805731422449 106 25 12
0.367671062025947 -1.355306302661589 1.222977364687536 184 111 88
0.367671062025947 -1.355306302661589 1.265148997952624 178 117 99
0.367671062025947 -1.355306302661589 1.307320631217711 255 143 113
0.367671062025947 -1.355306302661589 1.349492264482799 107 20 18
0.367671062025947 -1.355306302661589 1.391663897747886 85 14 11
0.367671062025947 -1.355306302661589 1.433835531012974 223 150 110
0.367671062025947 -1.313134669396502 0.463887965915962 38 7 10
0.367671062025947 -1.313134669396502 0.506059599181049 30 8 8
0.367671062025947 -1.313134669396502 0.548231232446137 26 6 2
0.367671062025947 -1.313134669396502 0.590402865711224 28 7 7
0.367671062025947 -1.313134669396502 0.632574498976312 43 10 21
0.367671062025947 -1.313134669396502 0.674746132241399 65 24 41
0.367671062025947 -1.313134669396502 0.716917765506487 70 30 45
0.367671062025947 -1.313134669396502 0.759089398771574 99 26 23
0.367671062025947 -1.313134669396502 0.801261032036662 62 8 7
0.367671062025947 -1.313134669396502 0.843432665301749 48 6 5
0.367671062025947 -1.313134669396502 0.885604298566837 49 8 8
0.367671062025947 -1.313134669396502 0.927775931831924 31 6 7
0.367671062025947 -1.313134669396502 0.969947565097012 25 5 3
0.367671062025947 -1.313134669396502 1.012119198362099 28 14 12
0.367671062025947 -1.313134669396502 1.054290831627186 52 24 20
0.367671062025947 -1.313134669396502 1.138634098157361 62 11 11
0.367671062025947 -1.313134669396502 1.180805731422449 54 18 16
0.367671062025947 -1.313134669396502 1.222977364687536 120 65 56
0.367671062025947 -1.313134669396502 1.265148997952624 103 70 68
0.367671062025947 -1.313134669396502 1.307320631217711 138 83 63
0.367671062025947 -1.313134669396502 1.349492264482799 158 109 99
0.367671062025947 -1.313134669396502 1.391663897747886 121 21 17
0.367671062025947 -1.313134669396502 1.433835531012974 210 135 99
0.367671062025947 -1.270963036131414 0.463887965915962 155 98 89
0.367671062025947 -1.270963036131414 0.506059599181049 178 110 94
0.367671062025947 -1.270963036131414 0.548231232446137 189 117 92
0.367671062025947 -1.270963036131414 0.590402865711224 203 129 99
0.367671062025947 -1.270963036131414 0.632574498976312 214 129 102
0.367671062025947 -1.270963036131414 0.674746132241399 218 119 95
0.367671062025947 -1.270963036131414 0.716917765506487 143 80 54
0.367671062025947 -1.270963036131414 0.759089398771574 101 69 55
0.367671062025947 -1.270963036131414 0.801261032036662 119 75 60
0.367671062025947 -1.270963036131414 0.843432665301749 138 81 64
0.367671062025947 -1.270963036131414 0.885604298566837 134 82 67
0.367671062025947 -1.270963036131414 0.927775931831924 126 78 64
0.367671062025947 -1.270963036131414 1.265148997952624 119 51 47
0.367671062025947 -1.270963036131414 1.307320631217711 150 79 62
0.367671062025947 -1.270963036131414 1.349492264482799 172 102 61
0.367671062025947 -1.270963036131414 1.391663897747886 180 119 84
0.367671062025947 -1.270963036131414 1.433835531012974 47 31 22
0.367671062025947 -1.228791402866327 0.506059599181049 196 117 74
0.367671062025947 -1.228791402866327 0.548231232446137 184 113 70
0.367671062025947 -1.228791402866327 0.590402865711224 186 106 71
0.367671062025947 -1.228791402866327 0.632574498976312 127 94 76
0.367671062025947 -1.228791402866327 1.349492264482799 153 81 61
0.409842695291035 -1.523992835721939 0.885604298566837 39 4 5
0.409842695291035 -1.523992835721939 0.927775931831924 37 3 7
0.409842695291035 -1.481821202456852 0.548231232446137 55 11 6
0.409842695291035 -1.481821202456852 0.590402865711224 51 10 8
0.409842695291035 -1.481821202456852 0.632574498976312 45 9 7
0.409842695291035 -1.481821202456852 0.674746132241399 42 7 4
0.409842695291035 -1.481821202456852 0.716917765506487 43 6 12
0.409842695291035 -1.481821202456852 0.759089398771574 41 8 7
0.409842695291035 -1.481821202456852 0.801261032036662 37 8 6
0.409842695291035 -1.481821202456852 0.843432665301749 40 9 6
0.409842695291035 -1.481821202456852 0.885604298566837 42 8 6
0.409842695291035 -1.481821202456852 0.927775931831924 36 8 5
0.409842695291035 -1.481821202456852 0.969947565097012 37 10 11
0.409842695291035 -1.481821202456852 1.012119198362099 51 6 7
0.409842695291035 -1.481821202456852 1.054290831627186 31 6 6
0.409842695291035 -1.481821202456852 1.096462464892274 74 52 68
0.409842695291035 -1.481821202456852 1.138634098157361 57 10 10
0.409842695291035 -1.481821202456852 1.180805731422449 42 6 8
0.409842695291035 -1.439649569191764 0.463887965915962 45 10 17
0.409842695291035 -1.439649569191764 0.506059599181049 47 9 10
0.409842695291035 -1.439649569191764 0.548231232446137 52 8 7
0.409842695291035 -1.439649569191764 0.590402865711224 52 9 8
0.409842695291035 -1.439649569191764 0.632574498976312 52 10 6
0.409842695291035 -1.439649569191764 0.674746132241399 48 10 8
0.409842695291035 -1.439649569191764 0.716917765506487 47 10 11
0.409842695291035 -1.439649569191764 0.759089398771574 38 7 6
0.409842695291035 -1.439649569191764 0.801261032036662 48 8 6
0.409842695291035 -1.439649569191764 0.843432665301749 35 7 7
0.409842695291035 -1.439649569191764 0.885604298566837 50 9 6
0.409842695291035 -1.439649569191764 0.927775931831924 34 7 5
0.409842695291035 -1.439649569191764 0.969947565097012 51 10 12
0.409842695291035 -1.439649569191764 1.012119198362099 81 14 13
0.409842695291035 -1.439649569191764 1.054290831627186 54 10 10
0.409842695291035 -1.439649569191764 1.096462464892274 105 19 18
0.409842695291035 -1.439649569191764 1.138634098157361 200 126 106
0.409842695291035 -1.439649569191764 1.180805731422449 154 85 99
0.409842695291035 -1.439649569191764 1.222977364687536 89 13 4
0.409842695291035 -1.439649569191764 1.265148997952624 100 16 12
0.409842695291035 -1.397477935926676 0.421716332650875 33 5 8
0.409842695291035 -1.397477935926676 0.463887965915962 39 9 8
0.409842695291035 -1.397477935926676 0.506059599181049 44 8 5
0.409842695291035 -1.397477935926676 0.548231232446137 42 7 7
0.409842695291035 -1.397477935926676 0.590402865711224 45 7 8
0.409842695291035 -1.397477935926676 0.632574498976312 47 7 5
0.409842695291035 -1.397477935926676 0.674746132241399 41 10 6
0.409842695291035 -1.397477935926676 0.716917765506487 42 8 7
0.409842695291035 -1.397477935926676 0.759089398771574 38 7 6
0.409842695291035 -1.397477935926676 0.801261032036662 43 8 12
0.409842695291035 -1.397477935926676 0.843432665301749 36 7 7
0.409842695291035 -1.397477935926676 0.885604298566837 34 8 7
0.409842695291035 -1.397477935926676 0.927775931831924 30 7 6
0.409842695291035 -1.397477935926676 0.969947565097012 41 9 6
0.409842695291035 -1.397477935926676 1.012119198362099 53 10 10
0.409842695291035 -1.397477935926676 1.054290831627186 62 9 9
0.409842695291035 -1.397477935926676 1.096462464892274 90 14 8
0.409842695291035 -1.397477935926676 1.138634098157361 211 134 106
0.409842695291035 -1.397477935926676 1.180805731422449 216 142 110
