ply
format ascii 1.0
element vertex 870
property double x
property double y
property double z
end_header
0.416478551495584 -1.228307421988664 0.408852133387231
0.416478551495584 -1.228307421988664 0.681420222312052
0.416478551495584 -1.219221819024503 0.000000000000000
0.416478551495584 -1.219221819024503 0.645077810455410
0.416478551495584 -1.210136216060342 0.000000000000000
0.416478551495584 -1.210136216060342 0.608735398598767
0.416478551495584 -1.201050613096182 0.000000000000000
0.416478551495584 -1.201050613096182 0.590564192670445
0.416478551495584 -1.191965010132021 0.000000000000000
0.416478551495584 -1.191965010132021 0.581478589706285
0.416478551495584 -1.182879407167860 0.000000000000000
0.416478551495584 -1.182879407167860 0.554221780813803
0.416478551495584 -1.173793804203699 0.000000000000000
0.416478551495584 -1.173793804203699 0.536050574885481
0.416478551495584 -1.164708201239539 0.000000000000000
0.416478551495584 -1.164708201239539 0.018171205928321
0.425564154459745 -1.528132319805967 0.735933840097017
0.425564154459745 -1.528132319805967 0.899474693451909
0.425564154459745 -1.519046716841806 0.699591428240374
0.425564154459745 -1.519046716841806 0.908560296416070
0.425564154459745 -1.509961113877645 0.681420222312052
0.425564154459745 -1.509961113877645 0.981245120129355
0.425564154459745 -1.500875510913485 0.599649795634606
0.425564154459745 -1.500875510913485 1.026673134950159
0.425564154459745 -1.491789907949324 0.517879368957160
0.425564154459745 -1.491789907949324 1.035758737914320
0.425564154459745 -1.482704304985163 0.499708163028838
0.425564154459745 -1.482704304985163 1.044844340878480
0.425564154459745 -1.473618702021003 0.481536957100517
0.425564154459745 -1.473618702021003 1.099357958663445
0.425564154459745 -1.464533099056842 0.454280148208035
0.425564154459745 -1.464533099056842 1.162957179412569
0.425564154459745 -1.455447496092681 0.454280148208035
0.425564154459745 -1.455447496092681 1.190213988305052
0.425564154459745 -1.446361893128520 0.436108942279714
0.425564154459745 -1.446361893128520 1.190213988305052
0.425564154459745 -1.437276290164360 0.427023339315553
0.425564154459745 -1.437276290164360 1.226556400161694
0.425564154459745 -1.428190687200199 0.417937736351392
0.425564154459745 -1.428190687200199 1.344669238695783
0.425564154459745 -1.419105084236038 0.417937736351392
0.425564154459745 -1.419105084236038 1.353754841659944
0.425564154459745 -1.410019481271878 0.399766530423071
0.425564154459745 -1.410019481271878 1.462782077229873
0.425564154459745 -1.400933878307717 0.399766530423071
0.425564154459745 -1.400933878307717 1.462782077229873
0.425564154459745 -1.391848275343556 0.390680927458910
0.425564154459745 -1.391848275343556 1.471867680194033
0.425564154459745 -1.382762672379396 0.390680927458910
0.425564154459745 -1.382762672379396 1.471867680194033
0.425564154459745 -1.373677069415235 0.372509721530589
0.425564154459745 -1.373677069415235 1.471867680194033
0.425564154459745 -1.364591466451074 0.372509721530589
0.425564154459745 -1.364591466451074 1.471867680194033
0.425564154459745 -1.355505863486913 0.363424118566428
0.425564154459745 -1.355505863486913 1.480953283158194
0.425564154459745 -1.346420260522753 0.354338515602267
0.425564154459745 -1.346420260522753 1.471867680194033
0.425564154459745 -1.337334657558592 0.345252912638107
0.425564154459745 -1.337334657558592 1.471867680194033
0.425564154459745 -1.328249054594431 0.345252912638107
0.425564154459745 -1.328249054594431 1.471867680194033
0.425564154459745 -1.319163451630271 0.336167309673946
0.425564154459745 -1.319163451630271 1.471867680194033
0.425564154459745 -1.310077848666110 0.327081706709785
0.425564154459745 -1.310077848666110 1.462782077229873
0.425564154459745 -1.300992245701949 0.317996103745624
0.425564154459745 -1.300992245701949 1.453696474265712
0.425564154459745 -1.291906642737789 0.308910500781464
0.425564154459745 -1.291906642737789 0.926731502344391
0.425564154459745 -1.282821039773628 0.317996103745624
0.425564154459745 -1.282821039773628 0.917645899380231
0.425564154459745 -1.273735436809467 0.290739294853142
0.425564154459745 -1.273735436809467 0.917645899380231
0.425564154459745 -1.264649833845306 0.290739294853142
0.425564154459745 -1.264649833845306 0.881303487523588
0.425564154459745 -1.255564230881146 0.290739294853142
0.425564154459745 -1.255564230881146 0.745019443061177
0.425564154459745 -1.246478627916985 0.290739294853142
0.425564154459745 -1.246478627916985 0.735933840097017
0.425564154459745 -1.237393024952824 0.345252912638107
0.425564154459745 -1.237393024952824 0.699591428240374
0.425564154459745 -1.228307421988664 0.000000000000000
0.425564154459745 -1.228307421988664 0.681420222312052
0.425564154459745 -1.219221819024503 0.000000000000000
0.425564154459745 -1.219221819024503 0.645077810455410
0.425564154459745 -1.210136216060342 0.000000000000000
0.425564154459745 -1.210136216060342 0.608735398598767
0.425564154459745 -1.201050613096182 0.000000000000000
0.425564154459745 -1.201050613096182 0.599649795634606
0.425564154459745 -1.191965010132021 0.000000000000000
0.425564154459745 -1.191965010132021 0.581478589706285
0.425564154459745 -1.182879407167860 0.000000000000000
0.425564154459745 -1.182879407167860 0.572392986742124
0.425564154459745 -1.173793804203699 0.000000000000000
0.425564154459745 -1.173793804203699 0.545136177849642
0.425564154459745 -1.164708201239539 0.000000000000000
0.425564154459745 -1.164708201239539 0.536050574885481
0.425564154459745 -1.155622598275378 0.000000000000000
0.425564154459745 -1.155622598275378 0.027256808892482
0.434649757423906 -1.528132319805967 0.726848237132856
0.434649757423906 -1.528132319805967 0.763190648989499
0.434649757423906 -1.519046716841806 0.699591428240374
0.434649757423906 -1.519046716841806 0.899474693451909
0.434649757423906 -1.509961113877645 0.672334619347892
0.434649757423906 -1.509961113877645 0.953988311236873
0.434649757423906 -1.500875510913485 0.626906604527088
0.434649757423906 -1.500875510913485 0.963073914201034
0.434649757423906 -1.491789907949324 0.508793765992999
0.434649757423906 -1.491789907949324 0.999416326057677
0.434649757423906 -1.482704304985163 0.481536957100517
0.434649757423906 -1.482704304985163 1.035758737914320
0.434649757423906 -1.473618702021003 0.463365751172196
0.434649757423906 -1.473618702021003 1.053929943842641
0.434649757423906 -1.464533099056842 0.454280148208035
0.434649757423906 -1.464533099056842 1.053929943842641
0.434649757423906 -1.455447496092681 0.436108942279714
0.434649757423906 -1.455447496092681 1.099357958663445
0.434649757423906 -1.446361893128520 0.436108942279714
0.434649757423906 -1.446361893128520 1.135700370520087
0.434649757423906 -1.437276290164360 0.427023339315553
0.434649757423906 -1.437276290164360 1.135700370520087
0.434649757423906 -1.428190687200199 0.417937736351392
0.434649757423906 -1.428190687200199 1.135700370520087
0.434649757423906 -1.419105084236038 0.408852133387231
0.434649757423906 -1.419105084236038 1.426439665373230
0.434649757423906 -1.410019481271878 0.399766530423071
0.434649757423906 -1.410019481271878 1.462782077229873
0.434649757423906 -1.400933878307717 0.399766530423071
0.434649757423906 -1.400933878307717 1.462782077229873
0.434649757423906 -1.391848275343556 0.381595324494749
0.434649757423906 -1.391848275343556 1.471867680194033
0.434649757423906 -1.382762672379396 0.381595324494749
0.434649757423906 -1.382762672379396 1.471867680194033
0.434649757423906 -1.373677069415235 0.372509721530589
0.434649757423906 -1.373677069415235 1.471867680194033
0.434649757423906 -1.364591466451074 0.372509721530589
0.434649757423906 -1.364591466451074 1.471867680194033
0.434649757423906 -1.355505863486913 0.363424118566428
0.434649757423906 -1.355505863486913 1.471867680194033
0.434649757423906 -1.346420260522753 0.354338515602267
0.434649757423906 -1.346420260522753 1.471867680194033
0.434649757423906 -1.337334657558592 0.354338515602267
0.434649757423906 -1.337334657558592 1.471867680194033
0.434649757423906 -1.328249054594431 0.336167309673946
0.434649757423906 -1.328249054594431 1.480953283158194
0.434649757423906 -1.319163451630271 0.336167309673946
0.434649757423906 -1.319163451630271 1.471867680194033
0.434649757423906 -1.310077848666110 0.317996103745624
0.434649757423906 -1.310077848666110 1.453696474265712
0.434649757423906 -1.300992245701949 0.308910500781464
0.434649757423906 -1.300992245701949 0.935817105308552
0.434649757423906 -1.291906642737789 0.299824897817303
0.434649757423906 -1.291906642737789 0.926731502344391
0.434649757423906 -1.282821039773628 0.290739294853142
0.434649757423906 -1.282821039773628 0.908560296416070
0.434649757423906 -1.273735436809467 0.290739294853142
0.434649757423906 -1.273735436809467 0.899474693451909
0.434649757423906 -1.264649833845306 0.263482485960660
0.434649757423906 -1.264649833845306 0.854046678631106
0.434649757423906 -1.255564230881146 0.272568088924821
0.434649757423906 -1.255564230881146 0.754105046025338
0.434649757423906 -1.246478627916985 0.263482485960660
0.434649757423906 -1.246478627916985 0.745019443061177
0.434649757423906 -1.237393024952824 0.236225677068178
0.434649757423906 -1.237393024952824 0.708677031204535
0.434649757423906 -1.228307421988664 0.000000000000000
0.434649757423906 -1.228307421988664 0.663249016383731
0.434649757423906 -1.219221819024503 0.000000000000000
0.434649757423906 -1.219221819024503 0.654163413419570
0.434649757423906 -1.210136216060342 0.000000000000000
0.434649757423906 -1.210136216060342 0.617821001562928
0.434649757423906 -1.201050613096182 0.000000000000000
0.434649757423906 -1.201050613096182 0.608735398598767
0.434649757423906 -1.191965010132021 0.000000000000000
0.434649757423906 -1.191965010132021 0.590564192670445
0.434649757423906 -1.182879407167860 0.000000000000000
0.434649757423906 -1.182879407167860 0.581478589706285
0.434649757423906 -1.173793804203699 0.000000000000000
0.434649757423906 -1.173793804203699 0.563307383777963
0.434649757423906 -1.164708201239539 0.000000000000000
0.434649757423906 -1.164708201239539 0.545136177849642
0.434649757423906 -1.155622598275378 0.000000000000000
0.434649757423906 -1.155622598275378 0.526964971921321
0.443735360388067 -1.528132319805967 0.726848237132856
0.443735360388067 -1.528132319805967 0.772276251953659
0.443735360388067 -1.519046716841806 0.699591428240374
0.443735360388067 -1.519046716841806 0.835875472702784
0.443735360388067 -1.509961113877645 0.690505825276213
0.443735360388067 -1.509961113877645 0.908560296416070
0.443735360388067 -1.500875510913485 0.654163413419570
0.443735360388067 -1.500875510913485 0.926731502344391
0.443735360388067 -1.491789907949324 0.481536957100517
0.443735360388067 -1.491789907949324 0.963073914201034
0.443735360388067 -1.482704304985163 0.463365751172196
0.443735360388067 -1.482704304985163 0.999416326057677
0.443735360388067 -1.473618702021003 0.463365751172196
0.443735360388067 -1.473618702021003 0.999416326057677
0.443735360388067 -1.464533099056842 0.445194545243874
0.443735360388067 -1.464533099056842 1.044844340878480
0.443735360388067 -1.455447496092681 0.445194545243874
0.443735360388067 -1.455447496092681 1.053929943842641
0.443735360388067 -1.446361893128520 0.436108942279714
0.443735360388067 -1.446361893128520 1.063015546806802
0.443735360388067 -1.437276290164360 0.427023339315553
0.443735360388067 -1.437276290164360 1.063015546806802
0.443735360388067 -1.428190687200199 0.417937736351392
0.443735360388067 -1.428190687200199 1.063015546806802
0.443735360388067 -1.419105084236038 0.408852133387231
0.443735360388067 -1.419105084236038 1.453696474265712
0.443735360388067 -1.410019481271878 0.408852133387231
0.443735360388067 -1.410019481271878 1.462782077229873
0.443735360388067 -1.400933878307717 0.390680927458910
0.443735360388067 -1.400933878307717 1.471867680194033
0.443735360388067 -1.391848275343556 0.390680927458910
0.443735360388067 -1.391848275343556 1.471867680194033
0.443735360388067 -1.382762672379396 0.381595324494749
0.443735360388067 -1.382762672379396 1.471867680194033
0.443735360388067 -1.373677069415235 0.372509721530589
0.443735360388067 -1.373677069415235 1.471867680194033
0.443735360388067 -1.364591466451074 0.372509721530589
0.443735360388067 -1.364591466451074 1.471867680194033
0.443735360388067 -1.355505863486913 0.363424118566428
0.443735360388067 -1.355505863486913 1.471867680194033
0.443735360388067 -1.346420260522753 0.363424118566428
0.443735360388067 -1.346420260522753 1.480953283158194
0.443735360388067 -1.337334657558592 0.345252912638107
0.443735360388067 -1.337334657558592 1.471867680194033
0.443735360388067 -1.328249054594431 0.336167309673946
0.443735360388067 -1.328249054594431 1.471867680194033
0.443735360388067 -1.319163451630271 0.317996103745624
0.443735360388067 -1.319163451630271 1.462782077229873
0.443735360388067 -1.310077848666110 0.317996103745624
0.443735360388067 -1.310077848666110 1.453696474265712
0.443735360388067 -1.300992245701949 0.299824897817303
0.443735360388067 -1.300992245701949 0.917645899380231
0.443735360388067 -1.291906642737789 0.290739294853142
0.443735360388067 -1.291906642737789 0.917645899380231
0.443735360388067 -1.282821039773628 0.281653691888982
0.443735360388067 -1.282821039773628 0.899474693451909
0.443735360388067 -1.273735436809467 0.263482485960660
0.443735360388067 -1.273735436809467 0.881303487523588
0.443735360388067 -1.264649833845306 0.254396882996500
0.443735360388067 -1.264649833845306 0.835875472702784
0.443735360388067 -1.255564230881146 0.245311280032339
0.443735360388067 -1.255564230881146 0.763190648989499
0.443735360388067 -1.246478627916985 0.236225677068178
0.443735360388067 -1.246478627916985 0.735933840097017
0.443735360388067 -1.237393024952824 0.218054471139857
0.443735360388067 -1.237393024952824 0.708677031204535
0.443735360388067 -1.228307421988664 0.009085602964161
0.443735360388067 -1.228307421988664 0.672334619347892
0.443735360388067 -1.219221819024503 0.000000000000000
0.443735360388067 -1.219221819024503 0.663249016383731
0.443735360388067 -1.210136216060342 0.000000000000000
0.443735360388067 -1.210136216060342 0.617821001562928
0.443735360388067 -1.201050613096182 0.000000000000000
0.443735360388067 -1.201050613096182 0.608735398598767
0.443735360388067 -1.191965010132021 0.000000000000000
0.443735360388067 -1.191965010132021 0.599649795634606
0.443735360388067 -1.182879407167860 0.000000000000000
0.443735360388067 -1.182879407167860 0.590564192670445
0.443735360388067 -1.173793804203699 0.000000000000000
0.443735360388067 -1.173793804203699 0.572392986742124
0.443735360388067 -1.164708201239539 0.000000000000000
0.443735360388067 -1.164708201239539 0.563307383777963
0.443735360388067 -1.155622598275378 0.000000000000000
0.443735360388067 -1.155622598275378 0.536050574885481
0.443735360388067 -1.146536995311217 0.526964971921321
0.443735360388067 -1.146536995311217 0.526964971921321
0.452820963352227 -1.528132319805967 0.735933840097017
0.452820963352227 -1.528132319805967 0.781361854917820
0.452820963352227 -1.519046716841806 0.717762634168695
0.452820963352227 -1.519046716841806 0.826789869738624
0.452820963352227 -1.509961113877645 0.690505825276213
0.452820963352227 -1.509961113877645 0.863132281595266
0.452820963352227 -1.500875510913485 0.690505825276213
0.452820963352227 -1.500875510913485 0.899474693451909
0.452820963352227 -1.491789907949324 0.617821001562928
0.452820963352227 -1.491789907949324 0.935817105308552
0.452820963352227 -1.482704304985163 0.463365751172196
0.452820963352227 -1.482704304985163 0.935817105308552
0.452820963352227 -1.473618702021003 0.463365751172196
0.452820963352227 -1.473618702021003 0.972159517165195
0.452820963352227 -1.464533099056842 0.454280148208035
0.452820963352227 -1.464533099056842 1.008501929021838
0.452820963352227 -1.455447496092681 0.445194545243874
0.452820963352227 -1.455447496092681 1.008501929021838
0.452820963352227 -1.446361893128520 0.436108942279714
0.452820963352227 -1.446361893128520 1.026673134950159
0.452820963352227 -1.437276290164360 0.436108942279714
0.452820963352227 -1.437276290164360 1.026673134950159
0.452820963352227 -1.428190687200199 0.427023339315553
0.452820963352227 -1.428190687200199 1.426439665373230
0.452820963352227 -1.419105084236038 0.417937736351392
0.452820963352227 -1.419105084236038 1.453696474265712
0.452820963352227 -1.410019481271878 0.399766530423071
0.452820963352227 -1.410019481271878 1.462782077229873
0.452820963352227 -1.400933878307717 0.399766530423071
0.452820963352227 -1.400933878307717 1.471867680194033
0.452820963352227 -1.391848275343556 0.390680927458910
0.452820963352227 -1.391848275343556 1.471867680194033
0.452820963352227 -1.382762672379396 0.390680927458910
0.452820963352227 -1.382762672379396 1.471867680194033
0.452820963352227 -1.373677069415235 0.381595324494749
0.452820963352227 -1.373677069415235 1.471867680194033
0.452820963352227 -1.364591466451074 0.372509721530589
0.452820963352227 -1.364591466451074 1.471867680194033
0.452820963352227 -1.355505863486913 0.363424118566428
0.452820963352227 -1.355505863486913 1.471867680194033
0.452820963352227 -1.346420260522753 0.345252912638107
0.452820963352227 -1.346420260522753 1.471867680194033
0.452820963352227 -1.337334657558592 0.345252912638107
0.452820963352227 -1.337334657558592 1.471867680194033
0.452820963352227 -1.328249054594431 0.327081706709785
0.452820963352227 -1.328249054594431 1.471867680194033
0.452820963352227 -1.319163451630271 0.317996103745624
0.452820963352227 -1.319163451630271 1.462782077229873
0.452820963352227 -1.310077848666110 0.308910500781464
0.452820963352227 -1.310077848666110 0.917645899380231
0.452820963352227 -1.300992245701949 0.290739294853142
0.452820963352227 -1.300992245701949 0.908560296416070
0.452820963352227 -1.291906642737789 0.281653691888982
0.452820963352227 -1.291906642737789 0.890389090487749
0.452820963352227 -1.282821039773628 0.263482485960660
0.452820963352227 -1.282821039773628 0.881303487523588
0.452820963352227 -1.273735436809467 0.263482485960660
0.452820963352227 -1.273735436809467 0.863132281595266
0.452820963352227 -1.264649833845306 0.245311280032339
0.452820963352227 -1.264649833845306 0.817704266774463
0.452820963352227 -1.255564230881146 0.236225677068178
0.452820963352227 -1.255564230881146 0.763190648989499
0.452820963352227 -1.246478627916985 0.227140074104017
0.452820963352227 -1.246478627916985 0.726848237132856
0.452820963352227 -1.237393024952824 0.218054471139857
0.452820963352227 -1.237393024952824 0.717762634168695
0.452820963352227 -1.228307421988664 0.018171205928321
0.452820963352227 -1.228307421988664 0.672334619347892
0.452820963352227 -1.219221819024503 0.000000000000000
0.452820963352227 -1.219221819024503 0.654163413419570
0.452820963352227 -1.210136216060342 0.000000000000000
0.452820963352227 -1.210136216060342 0.617821001562928
0.452820963352227 -1.201050613096182 0.000000000000000
0.452820963352227 -1.201050613096182 0.617821001562928
0.452820963352227 -1.191965010132021 0.000000000000000
0.452820963352227 -1.191965010132021 0.608735398598767
0.452820963352227 -1.182879407167860 0.000000000000000
0.452820963352227 -1.182879407167860 0.590564192670445
0.452820963352227 -1.173793804203699 0.000000000000000
0.452820963352227 -1.173793804203699 0.581478589706285
0.452820963352227 -1.164708201239539 0.000000000000000
0.452820963352227 -1.164708201239539 0.563307383777963
0.452820963352227 -1.155622598275378 0.000000000000000
0.452820963352227 -1.155622598275378 0.545136177849642
0.452820963352227 -1.146536995311217 0.009085602964161
0.452820963352227 -1.146536995311217 0.536050574885481
0.452820963352227 -1.137451392347057 0.517879368957160
0.452820963352227 -1.137451392347057 0.526964971921321
0.461906566316388 -1.519046716841806 0.735933840097017
0.461906566316388 -1.519046716841806 0.781361854917820
0.461906566316388 -1.509961113877645 0.699591428240374
0.461906566316388 -1.509961113877645 0.826789869738624
0.461906566316388 -1.500875510913485 0.690505825276213
0.461906566316388 -1.500875510913485 0.872217884559427
0.461906566316388 -1.491789907949324 0.681420222312052
0.461906566316388 -1.491789907949324 0.872217884559427
0.461906566316388 -1.482704304985163 0.617821001562928
0.461906566316388 -1.482704304985163 0.926731502344391
0.461906566316388 -1.473618702021003 0.463365751172196
0.461906566316388 -1.473618702021003 0.944902708272713
0.461906566316388 -1.464533099056842 0.463365751172196
0.461906566316388 -1.464533099056842 0.944902708272713
0.461906566316388 -1.455447496092681 0.454280148208035
0.461906566316388 -1.455447496092681 0.981245120129355
0.461906566316388 -1.446361893128520 0.445194545243874
0.461906566316388 -1.446361893128520 1.008501929021838
0.461906566316388 -1.437276290164360 0.436108942279714
0.461906566316388 -1.437276290164360 1.008501929021838
0.461906566316388 -1.428190687200199 0.427023339315553
0.461906566316388 -1.428190687200199 1.453696474265712
0.461906566316388 -1.419105084236038 0.417937736351392
0.461906566316388 -1.419105084236038 1.471867680194033
0.461906566316388 -1.410019481271878 0.408852133387231
0.461906566316388 -1.410019481271878 1.471867680194033
0.461906566316388 -1.400933878307717 0.399766530423071
0.461906566316388 -1.400933878307717 1.471867680194033
0.461906566316388 -1.391848275343556 0.399766530423071
0.461906566316388 -1.391848275343556 1.471867680194033
0.461906566316388 -1.382762672379396 0.390680927458910
0.461906566316388 -1.382762672379396 1.471867680194033
0.461906566316388 -1.373677069415235 0.381595324494749
0.461906566316388 -1.373677069415235 1.471867680194033
0.461906566316388 -1.364591466451074 0.363424118566428
0.461906566316388 -1.364591466451074 1.471867680194033
0.461906566316388 -1.355505863486913 0.354338515602267
0.461906566316388 -1.355505863486913 1.471867680194033
0.461906566316388 -1.346420260522753 0.345252912638107
0.461906566316388 -1.346420260522753 1.471867680194033
0.461906566316388 -1.337334657558592 0.327081706709785
0.461906566316388 -1.337334657558592 1.471867680194033
0.461906566316388 -1.328249054594431 0.317996103745624
0.461906566316388 -1.328249054594431 1.462782077229873
0.461906566316388 -1.319163451630271 0.308910500781464
0.461906566316388 -1.319163451630271 1.444610871301551
0.461906566316388 -1.310077848666110 0.290739294853142
0.461906566316388 -1.310077848666110 0.881303487523588
0.461906566316388 -1.300992245701949 0.290739294853142
0.461906566316388 -1.300992245701949 0.881303487523588
0.461906566316388 -1.291906642737789 0.272568088924821
0.461906566316388 -1.291906642737789 0.854046678631106
0.461906566316388 -1.282821039773628 0.263482485960660
0.461906566316388 -1.282821039773628 0.826789869738624
0.461906566316388 -1.273735436809467 0.254396882996500
0.461906566316388 -1.273735436809467 0.826789869738624
0.461906566316388 -1.264649833845306 0.245311280032339
0.461906566316388 -1.264649833845306 0.772276251953659
0.461906566316388 -1.255564230881146 0.227140074104017
0.461906566316388 -1.255564230881146 0.763190648989499
0.461906566316388 -1.246478627916985 0.227140074104017
0.461906566316388 -1.246478627916985 0.726848237132856
0.461906566316388 -1.237393024952824 0.208968868175696
0.461906566316388 -1.237393024952824 0.708677031204535
0.461906566316388 -1.228307421988664 0.027256808892482
0.461906566316388 -1.228307421988664 0.681420222312052
0.461906566316388 -1.219221819024503 0.000000000000000
0.461906566316388 -1.219221819024503 0.635992207491249
0.461906566316388 -1.210136216060342 0.000000000000000
0.461906566316388 -1.210136216060342 0.626906604527088
0.461906566316388 -1.201050613096182 0.000000000000000
0.461906566316388 -1.201050613096182 0.617821001562928
0.461906566316388 -1.191965010132021 0.000000000000000
0.461906566316388 -1.191965010132021 0.608735398598767
0.461906566316388 -1.182879407167860 0.000000000000000
0.461906566316388 -1.182879407167860 0.599649795634606
0.461906566316388 -1.173793804203699 0.000000000000000
0.461906566316388 -1.173793804203699 0.590564192670445
0.461906566316388 -1.164708201239539 0.000000000000000
0.461906566316388 -1.164708201239539 0.572392986742124
0.461906566316388 -1.155622598275378 0.000000000000000
0.461906566316388 -1.155622598275378 0.563307383777963
0.461906566316388 -1.146536995311217 0.000000000000000
0.461906566316388 -1.146536995311217 0.536050574885481
0.461906566316388 -1.137451392347057 0.099941632605768
0.461906566316388 -1.137451392347057 0.526964971921321
0.461906566316388 -1.128365789382896 0.118112838534089
0.461906566316388 -1.128365789382896 0.517879368957160
0.470992169280549 -1.509961113877645 0.772276251953659
0.470992169280549 -1.509961113877645 0.781361854917820
0.470992169280549 -1.500875510913485 0.708677031204535
0.470992169280549 -1.500875510913485 0.790447457881981
0.470992169280549 -1.491789907949324 0.690505825276213
0.470992169280549 -1.491789907949324 0.844961075666945
0.470992169280549 -1.482704304985163 0.654163413419570
0.470992169280549 -1.482704304985163 0.872217884559427
0.470992169280549 -1.473618702021003 0.617821001562928
0.470992169280549 -1.473618702021003 0.881303487523588
0.470992169280549 -1.464533099056842 0.454280148208035
0.470992169280549 -1.464533099056842 0.926731502344391
0.470992169280549 -1.455447496092681 0.454280148208035
0.470992169280549 -1.455447496092681 0.944902708272713
0.470992169280549 -1.446361893128520 0.454280148208035
0.470992169280549 -1.446361893128520 0.953988311236873
0.470992169280549 -1.437276290164360 0.445194545243874
0.470992169280549 -1.437276290164360 1.426439665373230
0.470992169280549 -1.428190687200199 0.436108942279714
0.470992169280549 -1.428190687200199 1.453696474265712
0.470992169280549 -1.419105084236038 0.417937736351392
0.470992169280549 -1.419105084236038 1.471867680194033
0.470992169280549 -1.410019481271878 0.408852133387231
0.470992169280549 -1.410019481271878 1.471867680194033
0.470992169280549 -1.400933878307717 0.408852133387231
0.470992169280549 -1.400933878307717 1.471867680194033
0.470992169280549 -1.391848275343556 0.408852133387231
0.470992169280549 -1.391848275343556 1.471867680194033
0.470992169280549 -1.382762672379396 0.399766530423071
0.470992169280549 -1.382762672379396 1.471867680194033
0.470992169280549 -1.373677069415235 0.390680927458910
0.470992169280549 -1.373677069415235 1.471867680194033
0.470992169280549 -1.364591466451074 0.363424118566428
0.470992169280549 -1.364591466451074 1.471867680194033
0.470992169280549 -1.355505863486913 0.354338515602267
0.470992169280549 -1.355505863486913 1.471867680194033
0.470992169280549 -1.346420260522753 0.345252912638107
0.470992169280549 -1.346420260522753 1.471867680194033
0.470992169280549 -1.337334657558592 0.317996103745624
0.470992169280549 -1.337334657558592 1.462782077229873
0.470992169280549 -1.328249054594431 0.317996103745624
0.470992169280549 -1.328249054594431 1.453696474265712
0.470992169280549 -1.319163451630271 0.299824897817303
0.470992169280549 -1.319163451630271 0.881303487523588
0.470992169280549 -1.310077848666110 0.290739294853142
0.470992169280549 -1.310077848666110 0.854046678631106
0.470992169280549 -1.300992245701949 0.272568088924821
0.470992169280549 -1.300992245701949 0.817704266774463
0.470992169280549 -1.291906642737789 0.272568088924821
0.470992169280549 -1.291906642737789 0.817704266774463
0.470992169280549 -1.282821039773628 0.254396882996500
0.470992169280549 -1.282821039773628 0.772276251953659
0.470992169280549 -1.273735436809467 0.245311280032339
0.470992169280549 -1.273735436809467 0.772276251953659
0.470992169280549 -1.264649833845306 0.236225677068178
0.470992169280549 -1.264649833845306 0.735933840097017
0.470992169280549 -1.255564230881146 0.227140074104017
0.470992169280549 -1.255564230881146 0.708677031204535
0.470992169280549 -1.246478627916985 0.208968868175696
0.470992169280549 -1.246478627916985 0.708677031204535
0.470992169280549 -1.237393024952824 0.199883265211535
0.470992169280549 -1.237393024952824 0.645077810455410
0.470992169280549 -1.228307421988664 0.009085602964161
0.470992169280549 -1.228307421988664 0.645077810455410
0.470992169280549 -1.219221819024503 0.000000000000000
0.470992169280549 -1.219221819024503 0.635992207491249
0.470992169280549 -1.210136216060342 0.000000000000000
0.470992169280549 -1.210136216060342 0.617821001562928
0.470992169280549 -1.201050613096182 0.000000000000000
0.470992169280549 -1.201050613096182 0.617821001562928
0.470992169280549 -1.191965010132021 0.000000000000000
0.470992169280549 -1.191965010132021 0.608735398598767
0.470992169280549 -1.182879407167860 0.000000000000000
0.470992169280549 -1.182879407167860 0.599649795634606
0.470992169280549 -1.173793804203699 0.000000000000000
0.470992169280549 -1.173793804203699 0.581478589706285
0.470992169280549 -1.164708201239539 0.000000000000000
0.470992169280549 -1.164708201239539 0.572392986742124
0.470992169280549 -1.155622598275378 0.000000000000000
0.470992169280549 -1.155622598275378 0.563307383777963
0.470992169280549 -1.146536995311217 0.000000000000000
0.470992169280549 -1.146536995311217 0.545136177849642
0.470992169280549 -1.137451392347057 0.090856029641607
0.470992169280549 -1.137451392347057 0.536050574885481
0.470992169280549 -1.128365789382896 0.090856029641607
0.470992169280549 -1.128365789382896 0.526964971921321
0.480077772244709 -1.500875510913485 0.772276251953659
0.480077772244709 -1.500875510913485 0.781361854917820
0.480077772244709 -1.491789907949324 0.781361854917820
0.480077772244709 -1.491789907949324 0.781361854917820
0.480077772244709 -1.482704304985163 0.708677031204535
0.480077772244709 -1.482704304985163 0.799533060846142
0.480077772244709 -1.473618702021003 0.663249016383731
0.480077772244709 -1.473618702021003 0.844961075666945
0.480077772244709 -1.464533099056842 0.454280148208035
0.480077772244709 -1.464533099056842 0.881303487523588
0.480077772244709 -1.455447496092681 0.463365751172196
0.480077772244709 -1.455447496092681 0.890389090487749
0.480077772244709 -1.446361893128520 0.463365751172196
0.480077772244709 -1.446361893128520 0.926731502344391
0.480077772244709 -1.437276290164360 0.454280148208035
0.480077772244709 -1.437276290164360 1.426439665373230
0.480077772244709 -1.428190687200199 0.436108942279714
0.480077772244709 -1.428190687200199 1.471867680194033
0.480077772244709 -1.419105084236038 0.427023339315553
0.480077772244709 -1.419105084236038 1.480953283158194
0.480077772244709 -1.410019481271878 0.417937736351392
0.480077772244709 -1.410019481271878 1.480953283158194
0.480077772244709 -1.400933878307717 0.417937736351392
0.480077772244709 -1.400933878307717 1.471867680194033
0.480077772244709 -1.391848275343556 0.417937736351392
0.480077772244709 -1.391848275343556 1.471867680194033
0.480077772244709 -1.382762672379396 0.408852133387231
0.480077772244709 -1.382762672379396 1.471867680194033
0.480077772244709 -1.373677069415235 0.399766530423071
0.480077772244709 -1.373677069415235 1.471867680194033
0.480077772244709 -1.364591466451074 0.363424118566428
0.480077772244709 -1.364591466451074 1.471867680194033
0.480077772244709 -1.355505863486913 0.354338515602267
0.480077772244709 -1.355505863486913 1.471867680194033
0.480077772244709 -1.346420260522753 0.345252912638107
0.480077772244709 -1.346420260522753 1.462782077229873
0.480077772244709 -1.337334657558592 0.317996103745624
0.480077772244709 -1.337334657558592 1.453696474265712
0.480077772244709 -1.328249054594431 0.308910500781464
0.480077772244709 -1.328249054594431 0.854046678631106
0.480077772244709 -1.319163451630271 0.299824897817303
0.480077772244709 -1.319163451630271 0.817704266774463
0.480077772244709 -1.310077848666110 0.281653691888982
0.480077772244709 -1.310077848666110 0.817704266774463
0.480077772244709 -1.300992245701949 0.272568088924821
0.480077772244709 -1.300992245701949 0.772276251953659
0.480077772244709 -1.291906642737789 0.263482485960660
0.480077772244709 -1.291906642737789 0.772276251953659
0.480077772244709 -1.282821039773628 0.254396882996500
0.480077772244709 -1.282821039773628 0.735933840097017
0.480077772244709 -1.273735436809467 0.236225677068178
0.480077772244709 -1.273735436809467 0.699591428240374
0.480077772244709 -1.264649833845306 0.227140074104017
0.480077772244709 -1.264649833845306 0.699591428240374
0.480077772244709 -1.255564230881146 0.218054471139857
0.480077772244709 -1.255564230881146 0.645077810455410
0.480077772244709 -1.246478627916985 0.190797662247375
0.480077772244709 -1.246478627916985 0.645077810455410
0.480077772244709 -1.237393024952824 0.190797662247375
0.480077772244709 -1.237393024952824 0.626906604527088
0.480077772244709 -1.228307421988664 0.090856029641607
0.480077772244709 -1.228307421988664 0.617821001562928
0.480077772244709 -1.219221819024503 0.000000000000000
0.480077772244709 -1.219221819024503 0.617821001562928
0.480077772244709 -1.210136216060342 0.000000000000000
0.480077772244709 -1.210136216060342 0.608735398598767
0.480077772244709 -1.201050613096182 0.000000000000000
0.480077772244709 -1.201050613096182 0.608735398598767
0.480077772244709 -1.191965010132021 0.000000000000000
0.480077772244709 -1.191965010132021 0.590564192670445
0.480077772244709 -1.182879407167860 0.000000000000000
0.480077772244709 -1.182879407167860 0.590564192670445
0.480077772244709 -1.173793804203699 0.000000000000000
0.480077772244709 -1.173793804203699 0.581478589706285
0.480077772244709 -1.164708201239539 0.000000000000000
0.480077772244709 -1.164708201239539 0.572392986742124
0.480077772244709 -1.155622598275378 0.000000000000000
0.480077772244709 -1.155622598275378 0.563307383777963
0.480077772244709 -1.146536995311217 0.000000000000000
0.480077772244709 -1.146536995311217 0.554221780813803
0.480077772244709 -1.137451392347057 0.054513617784964
0.480077772244709 -1.137451392347057 0.545136177849642
0.480077772244709 -1.128365789382896 0.081770426677446
0.480077772244709 -1.128365789382896 0.536050574885481
0.480077772244709 -1.119280186418735 0.109027235569928
0.480077772244709 -1.119280186418735 0.136284044462410
0.489163375208870 -1.482704304985163 0.781361854917820
0.489163375208870 -1.482704304985163 0.790447457881981
0.489163375208870 -1.473618702021003 0.781361854917820
0.489163375208870 -1.473618702021003 0.799533060846142
0.489163375208870 -1.464533099056842 0.708677031204535
0.489163375208870 -1.464533099056842 0.799533060846142
0.489163375208870 -1.455447496092681 0.472451354136356
0.489163375208870 -1.455447496092681 0.854046678631106
0.489163375208870 -1.446361893128520 0.463365751172196
0.489163375208870 -1.446361893128520 0.890389090487749
0.489163375208870 -1.437276290164360 0.463365751172196
0.489163375208870 -1.437276290164360 1.453696474265712
0.489163375208870 -1.428190687200199 0.445194545243874
0.489163375208870 -1.428190687200199 1.471867680194033
0.489163375208870 -1.419105084236038 0.436108942279714
0.489163375208870 -1.419105084236038 1.480953283158194
0.489163375208870 -1.410019481271878 0.427023339315553
0.489163375208870 -1.410019481271878 1.480953283158194
0.489163375208870 -1.400933878307717 0.427023339315553
0.489163375208870 -1.400933878307717 1.480953283158194
0.489163375208870 -1.391848275343556 0.427023339315553
0.489163375208870 -1.391848275343556 1.471867680194033
0.489163375208870 -1.382762672379396 0.417937736351392
0.489163375208870 -1.382762672379396 1.471867680194033
0.489163375208870 -1.373677069415235 0.381595324494749
0.489163375208870 -1.373677069415235 1.471867680194033
0.489163375208870 -1.364591466451074 0.372509721530589
0.489163375208870 -1.364591466451074 1.471867680194033
0.489163375208870 -1.355505863486913 0.363424118566428
0.489163375208870 -1.355505863486913 1.471867680194033
0.489163375208870 -1.346420260522753 0.345252912638107
0.489163375208870 -1.346420260522753 1.453696474265712
0.489163375208870 -1.337334657558592 0.327081706709785
0.489163375208870 -1.337334657558592 1.435525268337390
0.489163375208870 -1.328249054594431 0.308910500781464
0.489163375208870 -1.328249054594431 0.817704266774463
0.489163375208870 -1.319163451630271 0.299824897817303
0.489163375208870 -1.319163451630271 0.763190648989499
0.489163375208870 -1.310077848666110 0.290739294853142
0.489163375208870 -1.310077848666110 0.763190648989499
0.489163375208870 -1.300992245701949 0.272568088924821
0.489163375208870 -1.300992245701949 0.735933840097017
0.489163375208870 -1.291906642737789 0.263482485960660
0.489163375208870 -1.291906642737789 0.699591428240374
0.489163375208870 -1.282821039773628 0.254396882996500
0.489163375208870 -1.282821039773628 0.699591428240374
0.489163375208870 -1.273735436809467 0.236225677068178
0.489163375208870 -1.273735436809467 0.635992207491249
0.489163375208870 -1.264649833845306 0.218054471139857
0.489163375208870 -1.264649833845306 0.635992207491249
0.489163375208870 -1.255564230881146 0.208968868175696
0.489163375208870 -1.255564230881146 0.626906604527088
0.489163375208870 -1.246478627916985 0.181712059283214
0.489163375208870 -1.246478627916985 0.608735398598767
0.489163375208870 -1.237393024952824 0.172626456319053
0.489163375208870 -1.237393024952824 0.617821001562928
0.489163375208870 -1.228307421988664 0.163540853354893
0.489163375208870 -1.228307421988664 0.608735398598767
0.489163375208870 -1.219221819024503 0.000000000000000
0.489163375208870 -1.219221819024503 0.608735398598767
0.489163375208870 -1.210136216060342 0.000000000000000
0.489163375208870 -1.210136216060342 0.608735398598767
0.489163375208870 -1.201050613096182 0.000000000000000
0.489163375208870 -1.201050613096182 0.590564192670445
0.489163375208870 -1.191965010132021 0.000000000000000
0.489163375208870 -1.191965010132021 0.590564192670445
0.489163375208870 -1.182879407167860 0.000000000000000
0.489163375208870 -1.182879407167860 0.590564192670445
0.489163375208870 -1.173793804203699 0.000000000000000
0.489163375208870 -1.173793804203699 0.572392986742124
0.489163375208870 -1.164708201239539 0.000000000000000
0.489163375208870 -1.164708201239539 0.563307383777963
0.489163375208870 -1.155622598275378 0.000000000000000
0.489163375208870 -1.155622598275378 0.563307383777963
0.489163375208870 -1.146536995311217 0.000000000000000
0.489163375208870 -1.146536995311217 0.554221780813803
0.489163375208870 -1.137451392347057 0.045428014820803
0.489163375208870 -1.137451392347057 0.545136177849642
0.489163375208870 -1.128365789382896 0.063599220749125
0.489163375208870 -1.128365789382896 0.536050574885481
0.489163375208870 -1.119280186418735 0.090856029641607
0.489163375208870 -1.119280186418735 0.145369647426571
0.489163375208870 -1.110194583454575 0.099941632605768
0.489163375208870 -1.110194583454575 0.127198441498250
0.498248978173031 -1.464533099056842 0.790447457881981
0.498248978173031 -1.464533099056842 0.799533060846142
0.498248978173031 -1.455447496092681 0.790447457881981
0.498248978173031 -1.455447496092681 0.808618663810302
0.498248978173031 -1.446361893128520 0.699591428240374
0.498248978173031 -1.446361893128520 0.808618663810302
0.498248978173031 -1.437276290164360 0.472451354136356
0.498248978173031 -1.437276290164360 1.471867680194033
0.498248978173031 -1.428190687200199 0.472451354136356
0.498248978173031 -1.428190687200199 1.471867680194033
0.498248978173031 -1.419105084236038 0.445194545243874
0.498248978173031 -1.419105084236038 1.471867680194033
0.498248978173031 -1.410019481271878 0.436108942279714
0.498248978173031 -1.410019481271878 1.480953283158194
0.498248978173031 -1.400933878307717 0.436108942279714
0.498248978173031 -1.400933878307717 1.480953283158194
0.498248978173031 -1.391848275343556 0.436108942279714
0.498248978173031 -1.391848275343556 1.471867680194033
0.498248978173031 -1.382762672379396 0.427023339315553
0.498248978173031 -1.382762672379396 1.471867680194033
0.498248978173031 -1.373677069415235 0.390680927458910
0.498248978173031 -1.373677069415235 1.471867680194033
0.498248978173031 -1.364591466451074 0.381595324494749
0.498248978173031 -1.364591466451074 1.471867680194033
0.498248978173031 -1.355505863486913 0.363424118566428
0.498248978173031 -1.355505863486913 1.462782077229873
0.498248978173031 -1.346420260522753 0.354338515602267
0.498248978173031 -1.346420260522753 1.453696474265712
0.498248978173031 -1.337334657558592 0.336167309673946
0.498248978173031 -1.337334657558592 0.754105046025338
0.498248978173031 -1.328249054594431 0.317996103745624
0.498248978173031 -1.328249054594431 0.754105046025338
0.498248978173031 -1.319163451630271 0.308910500781464
0.498248978173031 -1.319163451630271 0.717762634168695
0.498248978173031 -1.310077848666110 0.290739294853142
0.498248978173031 -1.310077848666110 0.672334619347892
0.498248978173031 -1.300992245701949 0.281653691888982
0.498248978173031 -1.300992245701949 0.699591428240374
0.498248978173031 -1.291906642737789 0.272568088924821
0.498248978173031 -1.291906642737789 0.635992207491249
0.498248978173031 -1.282821039773628 0.254396882996500
0.498248978173031 -1.282821039773628 0.635992207491249
0.498248978173031 -1.273735436809467 0.236225677068178
0.498248978173031 -1.273735436809467 0.617821001562928
0.498248978173031 -1.264649833845306 0.227140074104017
0.498248978173031 -1.264649833845306 0.608735398598767
0.498248978173031 -1.255564230881146 0.208968868175696
0.498248978173031 -1.255564230881146 0.608735398598767
0.498248978173031 -1.246478627916985 0.190797662247375
0.498248978173031 -1.246478627916985 0.608735398598767
0.498248978173031 -1.237393024952824 0.181712059283214
0.498248978173031 -1.237393024952824 0.608735398598767
0.498248978173031 -1.228307421988664 0.145369647426571
0.498248978173031 -1.228307421988664 0.599649795634606
0.498248978173031 -1.219221819024503 0.127198441498250
0.498248978173031 -1.219221819024503 0.590564192670445
0.498248978173031 -1.210136216060342 0.090856029641607
0.498248978173031 -1.210136216060342 0.590564192670445
0.498248978173031 -1.201050613096182 0.000000000000000
0.498248978173031 -1.201050613096182 0.581478589706285
0.498248978173031 -1.191965010132021 0.000000000000000
0.498248978173031 -1.191965010132021 0.581478589706285
0.498248978173031 -1.182879407167860 0.000000000000000
0.498248978173031 -1.182879407167860 0.572392986742124
0.498248978173031 -1.173793804203699 0.000000000000000
0.498248978173031 -1.173793804203699 0.563307383777963
0.498248978173031 -1.164708201239539 0.000000000000000
0.498248978173031 -1.164708201239539 0.563307383777963
0.498248978173031 -1.155622598275378 0.036342411856643
0.498248978173031 -1.155622598275378 0.554221780813803
0.498248978173031 -1.146536995311217 0.045428014820803
0.498248978173031 -1.146536995311217 0.545136177849642
0.498248978173031 -1.137451392347057 0.045428014820803
0.498248978173031 -1.137451392347057 0.536050574885481
0.498248978173031 -1.128365789382896 0.063599220749125
0.498248978173031 -1.128365789382896 0.154455250390732
0.498248978173031 -1.119280186418735 0.081770426677446
0.498248978173031 -1.119280186418735 0.145369647426571
0.498248978173031 -1.110194583454575 0.090856029641607
0.498248978173031 -1.110194583454575 0.136284044462410
0.507334581137191 -1.455447496092681 0.799533060846142
0.507334581137191 -1.455447496092681 0.799533060846142
0.507334581137191 -1.446361893128520 0.799533060846142
0.507334581137191 -1.446361893128520 1.471867680194033
0.507334581137191 -1.437276290164360 0.790447457881981
0.507334581137191 -1.437276290164360 1.471867680194033
0.507334581137191 -1.428190687200199 0.708677031204535
0.507334581137191 -1.428190687200199 1.480953283158194
0.507334581137191 -1.419105084236038 0.481536957100517
0.507334581137191 -1.419105084236038 1.480953283158194
0.507334581137191 -1.410019481271878 0.481536957100517
0.507334581137191 -1.410019481271878 1.480953283158194
0.507334581137191 -1.400933878307717 0.445194545243874
0.507334581137191 -1.400933878307717 1.480953283158194
0.507334581137191 -1.391848275343556 0.445194545243874
0.507334581137191 -1.391848275343556 1.480953283158194
0.507334581137191 -1.382762672379396 0.427023339315553
0.507334581137191 -1.382762672379396 1.471867680194033
0.507334581137191 -1.373677069415235 0.417937736351392
0.507334581137191 -1.373677069415235 1.471867680194033
0.507334581137191 -1.364591466451074 0.399766530423071
0.507334581137191 -1.364591466451074 1.471867680194033
0.507334581137191 -1.355505863486913 0.372509721530589
0.507334581137191 -1.355505863486913 1.453696474265712
0.507334581137191 -1.346420260522753 0.363424118566428
0.507334581137191 -1.346420260522753 0.690505825276213
0.507334581137191 -1.337334657558592 0.336167309673946
0.507334581137191 -1.337334657558592 0.626906604527088
0.507334581137191 -1.328249054594431 0.327081706709785
0.507334581137191 -1.328249054594431 0.608735398598767
0.507334581137191 -1.319163451630271 0.308910500781464
0.507334581137191 -1.319163451630271 0.617821001562928
0.507334581137191 -1.310077848666110 0.299824897817303
0.507334581137191 -1.310077848666110 0.626906604527088
0.507334581137191 -1.300992245701949 0.290739294853142
0.507334581137191 -1.300992245701949 0.626906604527088
0.507334581137191 -1.291906642737789 0.272568088924821
0.507334581137191 -1.291906642737789 0.617821001562928
0.507334581137191 -1.282821039773628 0.254396882996500
0.507334581137191 -1.282821039773628 0.608735398598767
0.507334581137191 -1.273735436809467 0.245311280032339
0.507334581137191 -1.273735436809467 0.608735398598767
0.507334581137191 -1.264649833845306 0.227140074104017
0.507334581137191 -1.264649833845306 0.599649795634606
0.507334581137191 -1.255564230881146 0.218054471139857
0.507334581137191 -1.255564230881146 0.599649795634606
0.507334581137191 -1.246478627916985 0.199883265211535
0.507334581137191 -1.246478627916985 0.599649795634606
0.507334581137191 -1.237393024952824 0.181712059283214
0.507334581137191 -1.237393024952824 0.599649795634606
0.507334581137191 -1.228307421988664 0.172626456319053
0.507334581137191 -1.228307421988664 0.581478589706285
0.507334581137191 -1.219221819024503 0.127198441498250
0.507334581137191 -1.219221819024503 0.581478589706285
0.507334581137191 -1.210136216060342 0.118112838534089
0.507334581137191 -1.210136216060342 0.581478589706285
0.507334581137191 -1.201050613096182 0.109027235569928
0.507334581137191 -1.201050613096182 0.572392986742124
0.507334581137191 -1.191965010132021 0.099941632605768
0.507334581137191 -1.191965010132021 0.581478589706285
0.507334581137191 -1.182879407167860 0.000000000000000
0.507334581137191 -1.182879407167860 0.572392986742124
0.507334581137191 -1.173793804203699 0.027256808892482
0.507334581137191 -1.173793804203699 0.563307383777963
0.507334581137191 -1.164708201239539 0.036342411856643
0.507334581137191 -1.164708201239539 0.554221780813803
0.507334581137191 -1.155622598275378 0.036342411856643
0.507334581137191 -1.155622598275378 0.545136177849642
0.507334581137191 -1.146536995311217 0.054513617784964
0.507334581137191 -1.146536995311217 0.526964971921321
0.507334581137191 -1.137451392347057 0.054513617784964
0.507334581137191 -1.137451392347057 0.154455250390732
0.507334581137191 -1.128365789382896 0.072684823713286
0.507334581137191 -1.128365789382896 0.154455250390732
0.507334581137191 -1.119280186418735 0.090856029641607
0.507334581137191 -1.119280186418735 0.145369647426571
0.507334581137191 -1.110194583454575 0.090856029641607
0.507334581137191 -1.110194583454575 0.136284044462410
0.516420184101352 -1.455447496092681 1.444610871301551
0.516420184101352 -1.455447496092681 1.453696474265712
0.516420184101352 -1.446361893128520 1.426439665373230
0.516420184101352 -1.446361893128520 1.480953283158194
0.516420184101352 -1.437276290164360 1.408268459444908
0.516420184101352 -1.437276290164360 1.480953283158194
0.516420184101352 -1.428190687200199 1.390097253516587
0.516420184101352 -1.428190687200199 1.480953283158194
0.516420184101352 -1.419105084236038 1.390097253516587
0.516420184101352 -1.419105084236038 1.480953283158194
