ply
format ascii 1.0
element vertex 869
property double x
property double y
property double z
end_header
-0.248951106327903 -1.316606914297389 0.880845219262994
-0.229376768122059 -1.375329928914922 0.861270881057150
-0.229376768122059 -1.375329928914922 0.861270881057150
-0.229376768122059 -1.355755590709077 0.822122204645461
-0.229376768122059 -1.355755590709077 0.900419557468839
-0.229376768122059 -1.336181252503233 0.822122204645461
-0.229376768122059 -1.336181252503233 0.900419557468839
-0.229376768122059 -1.316606914297389 0.841696542851306
-0.229376768122059 -1.316606914297389 0.880845219262994
-0.229376768122059 -1.297032576091544 0.861270881057150
-0.229376768122059 -1.297032576091544 0.880845219262994
-0.209802429916215 -1.355755590709077 0.822122204645461
-0.209802429916215 -1.355755590709077 0.900419557468839
-0.209802429916215 -1.336181252503233 0.841696542851306
-0.209802429916215 -1.336181252503233 0.900419557468839
-0.209802429916215 -1.316606914297389 0.841696542851306
-0.209802429916215 -1.316606914297389 0.900419557468839
-0.209802429916215 -1.297032576091544 0.841696542851306
-0.209802429916215 -1.297032576091544 0.880845219262994
-0.190228091710371 -1.355755590709077 0.841696542851306
-0.190228091710371 -1.355755590709077 0.900419557468839
-0.190228091710371 -1.336181252503233 0.841696542851306
-0.190228091710371 -1.336181252503233 0.919993895674683
-0.190228091710371 -1.316606914297389 0.841696542851306
-0.190228091710371 -1.316606914297389 0.900419557468839
-0.190228091710371 -1.297032576091544 0.880845219262994
-0.190228091710371 -1.297032576091544 0.900419557468839
-0.170653753504526 -1.355755590709077 0.861270881057150
-0.170653753504526 -1.355755590709077 0.900419557468839
-0.170653753504526 -1.336181252503233 0.861270881057150
-0.170653753504526 -1.336181252503233 0.919993895674683
-0.170653753504526 -1.316606914297389 0.861270881057150
-0.170653753504526 -1.316606914297389 0.900419557468839
-0.170653753504526 -1.297032576091544 0.880845219262994
-0.170653753504526 -1.297032576091544 0.900419557468839
-0.151079415298682 -1.355755590709077 0.861270881057150
-0.151079415298682 -1.355755590709077 0.900419557468839
-0.151079415298682 -1.336181252503233 0.880845219262994
-0.151079415298682 -1.336181252503233 0.919993895674683
-0.151079415298682 -1.316606914297389 0.880845219262994
-0.151079415298682 -1.316606914297389 0.919993895674683
-0.151079415298682 -1.297032576091544 0.880845219262994
-0.151079415298682 -1.297032576091544 0.900419557468839
-0.131505077092838 -1.355755590709077 0.880845219262994
-0.131505077092838 -1.355755590709077 0.900419557468839
-0.131505077092838 -1.336181252503233 0.880845219262994
-0.131505077092838 -1.336181252503233 0.919993895674683
-0.131505077092838 -1.316606914297389 0.880845219262994
-0.131505077092838 -1.316606914297389 0.919993895674683
-0.131505077092838 -1.297032576091544 0.880845219262994
-0.131505077092838 -1.297032576091544 0.919993895674683
-0.111930738886993 -1.355755590709077 0.900419557468839
-0.111930738886993 -1.355755590709077 0.900419557468839
-0.111930738886993 -1.336181252503233 0.880845219262994
-0.111930738886993 -1.336181252503233 0.939568233880527
-0.111930738886993 -1.316606914297389 0.880845219262994
-0.111930738886993 -1.316606914297389 0.939568233880527
-0.111930738886993 -1.297032576091544 0.900419557468839
-0.111930738886993 -1.297032576091544 0.919993895674683
-0.092356400681149 -1.355755590709077 0.900419557468839
-0.092356400681149 -1.355755590709077 0.900419557468839
-0.092356400681149 -1.336181252503233 0.900419557468839
-0.092356400681149 -1.336181252503233 0.939568233880527
-0.092356400681149 -1.316606914297389 0.900419557468839
-0.092356400681149 -1.316606914297389 0.939568233880527
-0.092356400681149 -1.297032576091544 0.900419557468839
-0.092356400681149 -1.297032576091544 0.939568233880527
-0.072782062475305 -1.355755590709077 0.900419557468839
-0.072782062475305 -1.355755590709077 0.939568233880527
-0.072782062475305 -1.336181252503233 0.900419557468839
-0.072782062475305 -1.336181252503233 0.959142572086372
-0.072782062475305 -1.316606914297389 0.900419557468839
-0.072782062475305 -1.316606914297389 0.959142572086372
-0.072782062475305 -1.297032576091544 0.919993895674683
-0.072782062475305 -1.297032576091544 0.939568233880527
-0.053207724269460 -1.355755590709077 0.919993895674683
-0.053207724269460 -1.355755590709077 0.939568233880527
-0.053207724269460 -1.336181252503233 0.919993895674683
-0.053207724269460 -1.336181252503233 0.959142572086372
-0.053207724269460 -1.316606914297389 0.919993895674683
-0.053207724269460 -1.316606914297389 0.959142572086372
-0.053207724269460 -1.297032576091544 0.919993895674683
-0.053207724269460 -1.297032576091544 0.959142572086372
-0.033633386063616 -1.355755590709077 0.939568233880527
-0.033633386063616 -1.355755590709077 0.978716910292216
-0.033633386063616 -1.336181252503233 0.919993895674683
-0.033633386063616 -1.336181252503233 0.978716910292216
-0.033633386063616 -1.316606914297389 0.919993895674683
-0.033633386063616 -1.316606914297389 0.978716910292216
-0.033633386063616 -1.297032576091544 0.919993895674683
-0.033633386063616 -1.297032576091544 0.978716910292216
-0.014059047857772 -1.355755590709077 0.939568233880527
-0.014059047857772 -1.355755590709077 0.978716910292216
-0.014059047857772 -1.336181252503233 0.939568233880527
-0.014059047857772 -1.336181252503233 0.998291248498060
-0.014059047857772 -1.316606914297389 0.939568233880527
-0.014059047857772 -1.316606914297389 0.978716910292216
-0.014059047857772 -1.297032576091544 0.939568233880527
-0.014059047857772 -1.297032576091544 0.978716910292216
0.005515290348073 -1.355755590709077 0.939568233880527
0.005515290348073 -1.355755590709077 0.998291248498060
0.005515290348073 -1.336181252503233 0.939568233880527
0.005515290348073 -1.336181252503233 0.998291248498060
0.005515290348073 -1.316606914297389 0.939568233880527
0.005515290348073 -1.316606914297389 0.998291248498060
0.005515290348073 -1.297032576091544 0.959142572086372
0.005515290348073 -1.297032576091544 0.998291248498060
0.005515290348073 -1.277458237885700 0.978716910292216
0.005515290348073 -1.277458237885700 0.978716910292216
0.025089628553917 -1.355755590709077 0.959142572086372
0.025089628553917 -1.355755590709077 1.017865586703905
0.025089628553917 -1.336181252503233 0.959142572086372
0.025089628553917 -1.336181252503233 1.017865586703905
0.025089628553917 -1.316606914297389 0.959142572086372
0.025089628553917 -1.316606914297389 1.017865586703905
0.025089628553917 -1.297032576091544 0.959142572086372
0.025089628553917 -1.297032576091544 1.017865586703905
0.025089628553917 -1.277458237885700 0.998291248498060
0.025089628553917 -1.277458237885700 0.998291248498060
0.044663966759761 -1.394904267120766 1.017865586703905
0.044663966759761 -1.394904267120766 1.017865586703905
0.044663966759761 -1.375329928914922 0.978716910292216
0.044663966759761 -1.375329928914922 1.017865586703905
0.044663966759761 -1.355755590709077 0.959142572086372
0.044663966759761 -1.355755590709077 1.017865586703905
0.044663966759761 -1.336181252503233 0.959142572086372
0.044663966759761 -1.336181252503233 1.017865586703905
0.044663966759761 -1.316606914297389 0.959142572086372
0.044663966759761 -1.316606914297389 1.017865586703905
0.044663966759761 -1.297032576091544 0.959142572086372
0.044663966759761 -1.297032576091544 1.057014263115593
0.044663966759761 -1.277458237885700 1.017865586703905
0.044663966759761 -1.277458237885700 1.017865586703905
0.044663966759761 -1.257883899679856 1.487649703644168
0.044663966759761 -1.257883899679856 1.507224041850012
0.044663966759761 -1.238309561474011 1.507224041850012
0.044663966759761 -1.238309561474011 1.507224041850012
0.044663966759761 -1.218735223268167 1.565947056467545
0.044663966759761 -1.218735223268167 1.565947056467545
0.064238304965606 -1.375329928914922 0.998291248498060
0.064238304965606 -1.375329928914922 1.037439924909749
0.064238304965606 -1.355755590709077 0.978716910292216
0.064238304965606 -1.355755590709077 1.037439924909749
0.064238304965606 -1.336181252503233 0.978716910292216
0.064238304965606 -1.336181252503233 1.037439924909749
0.064238304965606 -1.316606914297389 0.978716910292216
0.064238304965606 -1.316606914297389 1.096162939527282
0.064238304965606 -1.297032576091544 0.978716910292216
0.064238304965606 -1.297032576091544 1.507224041850012
0.064238304965606 -1.277458237885700 1.154885954144815
0.064238304965606 -1.277458237885700 1.507224041850012
0.064238304965606 -1.257883899679856 1.468075365438324
0.064238304965606 -1.257883899679856 1.565947056467545
0.064238304965606 -1.238309561474011 1.487649703644168
0.064238304965606 -1.238309561474011 1.565947056467545
0.064238304965606 -1.218735223268167 1.526798380055857
0.064238304965606 -1.218735223268167 1.605095732879234
0.064238304965606 -1.199160885062323 1.526798380055857
0.064238304965606 -1.199160885062323 1.605095732879234
0.083812643171450 -1.355755590709077 1.017865586703905
0.083812643171450 -1.355755590709077 1.096162939527282
0.083812643171450 -1.336181252503233 0.998291248498060
0.083812643171450 -1.336181252503233 1.135311615938970
0.083812643171450 -1.316606914297389 0.998291248498060
0.083812643171450 -1.316606914297389 1.526798380055857
0.083812643171450 -1.297032576091544 0.998291248498060
0.083812643171450 -1.297032576091544 1.526798380055857
0.083812643171450 -1.277458237885700 1.017865586703905
0.083812643171450 -1.277458237885700 1.565947056467545
0.083812643171450 -1.257883899679856 1.154885954144815
0.083812643171450 -1.257883899679856 1.605095732879234
0.083812643171450 -1.238309561474011 1.233183306968192
0.083812643171450 -1.238309561474011 1.605095732879234
0.083812643171450 -1.218735223268167 1.507224041850012
0.083812643171450 -1.218735223268167 1.624670071085078
0.083812643171450 -1.199160885062323 1.507224041850012
0.083812643171450 -1.199160885062323 1.624670071085078
0.083812643171450 -1.179586546856479 1.526798380055857
0.083812643171450 -1.179586546856479 1.605095732879234
0.103386981377294 -1.473201619944143 1.037439924909749
0.103386981377294 -1.473201619944143 1.037439924909749
0.103386981377294 -1.453627281738299 1.057014263115593
0.103386981377294 -1.453627281738299 1.076588601321437
0.103386981377294 -1.375329928914922 1.154885954144815
0.103386981377294 -1.375329928914922 1.194034630556503
0.103386981377294 -1.355755590709077 1.076588601321437
0.103386981377294 -1.355755590709077 1.213608968762348
0.103386981377294 -1.336181252503233 1.057014263115593
0.103386981377294 -1.336181252503233 1.252757645174036
0.103386981377294 -1.316606914297389 1.037439924909749
0.103386981377294 -1.316606914297389 1.565947056467545
0.103386981377294 -1.297032576091544 1.037439924909749
0.103386981377294 -1.297032576091544 1.585521394673390
0.103386981377294 -1.277458237885700 1.037439924909749
0.103386981377294 -1.277458237885700 1.605095732879234
0.103386981377294 -1.257883899679856 1.096162939527282
0.103386981377294 -1.257883899679856 1.624670071085078
0.103386981377294 -1.238309561474011 1.174460292350659
0.103386981377294 -1.238309561474011 1.624670071085078
0.103386981377294 -1.218735223268167 1.233183306968192
0.103386981377294 -1.218735223268167 1.624670071085078
0.103386981377294 -1.199160885062323 1.487649703644168
0.103386981377294 -1.199160885062323 1.624670071085078
0.103386981377294 -1.179586546856479 1.507224041850012
0.103386981377294 -1.179586546856479 1.624670071085078
0.103386981377294 -1.160012208650634 1.526798380055857
0.103386981377294 -1.160012208650634 1.605095732879234
0.122961319583139 -1.629796325590898 0.000000000000000
0.122961319583139 -1.629796325590898 0.019574338205844
0.122961319583139 -1.492775958149988 1.017865586703905
0.122961319583139 -1.492775958149988 1.037439924909749
0.122961319583139 -1.473201619944143 1.017865586703905
0.122961319583139 -1.473201619944143 1.096162939527282
0.122961319583139 -1.453627281738299 1.017865586703905
0.122961319583139 -1.453627281738299 1.096162939527282
0.122961319583139 -1.434052943532455 1.057014263115593
0.122961319583139 -1.434052943532455 1.076588601321437
0.122961319583139 -1.414478605326610 1.096162939527282
0.122961319583139 -1.414478605326610 1.096162939527282
0.122961319583139 -1.394904267120766 1.115737277733126
0.122961319583139 -1.394904267120766 1.233183306968192
0.122961319583139 -1.375329928914922 1.135311615938970
0.122961319583139 -1.375329928914922 1.252757645174036
0.122961319583139 -1.355755590709077 1.135311615938970
0.122961319583139 -1.355755590709077 1.252757645174036
0.122961319583139 -1.336181252503233 1.096162939527282
0.122961319583139 -1.336181252503233 1.487649703644168
0.122961319583139 -1.316606914297389 1.057014263115593
0.122961319583139 -1.316606914297389 1.565947056467545
0.122961319583139 -1.297032576091544 1.057014263115593
0.122961319583139 -1.297032576091544 1.585521394673390
0.122961319583139 -1.277458237885700 1.057014263115593
0.122961319583139 -1.277458237885700 1.624670071085078
0.122961319583139 -1.257883899679856 1.076588601321437
0.122961319583139 -1.257883899679856 1.624670071085078
0.122961319583139 -1.238309561474011 1.135311615938970
0.122961319583139 -1.238309561474011 1.624670071085078
0.122961319583139 -1.218735223268167 1.194034630556503
0.122961319583139 -1.218735223268167 1.624670071085078
0.122961319583139 -1.199160885062323 1.468075365438324
0.122961319583139 -1.199160885062323 1.624670071085078
0.122961319583139 -1.179586546856479 1.487649703644168
0.122961319583139 -1.179586546856479 1.624670071085078
0.122961319583139 -1.160012208650634 1.507224041850012
0.122961319583139 -1.160012208650634 1.605095732879234
0.122961319583139 -1.140437870444790 1.546372718261701
0.122961319583139 -1.140437870444790 1.565947056467545
0.142535657788983 -1.649370663796742 0.000000000000000
0.142535657788983 -1.649370663796742 0.019574338205844
0.142535657788983 -1.629796325590898 0.000000000000000
0.142535657788983 -1.629796325590898 0.019574338205844
0.142535657788983 -1.610221987385053 0.000000000000000
0.142535657788983 -1.610221987385053 0.019574338205844
0.142535657788983 -1.590647649179209 0.000000000000000
0.142535657788983 -1.590647649179209 0.000000000000000
0.142535657788983 -1.512350296355832 1.037439924909749
0.142535657788983 -1.512350296355832 1.037439924909749
0.142535657788983 -1.492775958149988 1.037439924909749
0.142535657788983 -1.492775958149988 1.096162939527282
0.142535657788983 -1.473201619944143 1.037439924909749
0.142535657788983 -1.473201619944143 1.096162939527282
0.142535657788983 -1.453627281738299 1.037439924909749
0.142535657788983 -1.453627281738299 1.096162939527282
0.142535657788983 -1.434052943532455 1.037439924909749
0.142535657788983 -1.434052943532455 1.194034630556503
0.142535657788983 -1.414478605326610 1.057014263115593
0.142535657788983 -1.414478605326610 1.252757645174036
0.142535657788983 -1.394904267120766 0.704676175410395
0.142535657788983 -1.394904267120766 1.252757645174036
0.142535657788983 -1.375329928914922 0.724250513616240
0.142535657788983 -1.375329928914922 1.272331983379881
0.142535657788983 -1.355755590709077 0.782973528233773
0.142535657788983 -1.355755590709077 1.291906321585725
0.142535657788983 -1.336181252503233 1.135311615938970
0.142535657788983 -1.336181252503233 1.546372718261701
0.142535657788983 -1.316606914297389 1.135311615938970
0.142535657788983 -1.316606914297389 1.585521394673390
0.142535657788983 -1.297032576091544 1.096162939527282
0.142535657788983 -1.297032576091544 1.605095732879234
0.142535657788983 -1.277458237885700 1.096162939527282
0.142535657788983 -1.277458237885700 1.644244409290923
0.142535657788983 -1.257883899679856 1.096162939527282
0.142535657788983 -1.257883899679856 1.644244409290923
0.142535657788983 -1.238309561474011 1.115737277733126
0.142535657788983 -1.238309561474011 1.644244409290923
0.142535657788983 -1.218735223268167 1.174460292350659
0.142535657788983 -1.218735223268167 1.624670071085078
0.142535657788983 -1.199160885062323 1.468075365438324
0.142535657788983 -1.199160885062323 1.624670071085078
0.142535657788983 -1.179586546856479 1.468075365438324
0.142535657788983 -1.179586546856479 1.624670071085078
0.142535657788983 -1.160012208650634 1.487649703644168
0.142535657788983 -1.160012208650634 1.605095732879234
0.142535657788983 -1.140437870444790 1.507224041850012
0.142535657788983 -1.140437870444790 1.585521394673390
0.162109995994827 -1.649370663796742 0.019574338205844
0.162109995994827 -1.649370663796742 0.019574338205844
0.162109995994827 -1.629796325590898 0.000000000000000
0.162109995994827 -1.629796325590898 0.019574338205844
0.162109995994827 -1.610221987385053 0.000000000000000
0.162109995994827 -1.610221987385053 0.039148676411689
0.162109995994827 -1.590647649179209 0.000000000000000
0.162109995994827 -1.590647649179209 0.019574338205844
0.162109995994827 -1.512350296355832 1.057014263115593
0.162109995994827 -1.512350296355832 1.115737277733126
0.162109995994827 -1.492775958149988 1.037439924909749
0.162109995994827 -1.492775958149988 1.115737277733126
0.162109995994827 -1.473201619944143 1.037439924909749
0.162109995994827 -1.473201619944143 1.115737277733126
0.162109995994827 -1.453627281738299 1.037439924909749
0.162109995994827 -1.453627281738299 1.252757645174036
0.162109995994827 -1.434052943532455 0.567655807969485
0.162109995994827 -1.434052943532455 1.272331983379881
0.162109995994827 -1.414478605326610 0.606804484381174
0.162109995994827 -1.414478605326610 1.291906321585725
0.162109995994827 -1.394904267120766 0.626378822587018
0.162109995994827 -1.394904267120766 1.291906321585725
0.162109995994827 -1.375329928914922 0.704676175410395
0.162109995994827 -1.375329928914922 1.291906321585725
0.162109995994827 -1.355755590709077 0.743824851822084
0.162109995994827 -1.355755590709077 1.291906321585725
0.162109995994827 -1.336181252503233 0.782973528233773
0.162109995994827 -1.336181252503233 1.546372718261701
0.162109995994827 -1.316606914297389 1.135311615938970
0.162109995994827 -1.316606914297389 1.605095732879234
0.162109995994827 -1.297032576091544 1.135311615938970
0.162109995994827 -1.297032576091544 1.624670071085078
0.162109995994827 -1.277458237885700 1.135311615938970
0.162109995994827 -1.277458237885700 1.644244409290923
0.162109995994827 -1.257883899679856 1.096162939527282
0.162109995994827 -1.257883899679856 1.644244409290923
0.162109995994827 -1.238309561474011 1.115737277733126
0.162109995994827 -1.238309561474011 1.644244409290923
0.162109995994827 -1.218735223268167 1.154885954144815
0.162109995994827 -1.218735223268167 1.624670071085078
0.162109995994827 -1.199160885062323 1.448501027232479
0.162109995994827 -1.199160885062323 1.624670071085078
0.162109995994827 -1.179586546856479 1.468075365438324
0.162109995994827 -1.179586546856479 1.624670071085078
0.162109995994827 -1.160012208650634 1.468075365438324
0.162109995994827 -1.160012208650634 1.605095732879234
0.162109995994827 -1.140437870444790 1.487649703644168
0.162109995994827 -1.140437870444790 1.585521394673390
0.181684334200671 -1.649370663796742 0.039148676411689
0.181684334200671 -1.649370663796742 0.058723014617533
0.181684334200671 -1.629796325590898 0.000000000000000
0.181684334200671 -1.629796325590898 0.058723014617533
0.181684334200671 -1.610221987385053 0.000000000000000
0.181684334200671 -1.610221987385053 0.039148676411689
0.181684334200671 -1.590647649179209 0.000000000000000
0.181684334200671 -1.590647649179209 0.039148676411689
0.181684334200671 -1.571073310973365 0.000000000000000
0.181684334200671 -1.571073310973365 0.000000000000000
0.181684334200671 -1.531924634561676 1.057014263115593
0.181684334200671 -1.531924634561676 1.135311615938970
0.181684334200671 -1.512350296355832 1.057014263115593
0.181684334200671 -1.512350296355832 1.135311615938970
0.181684334200671 -1.492775958149988 1.057014263115593
0.181684334200671 -1.492775958149988 1.154885954144815
0.181684334200671 -1.473201619944143 0.430635440528575
0.181684334200671 -1.473201619944143 1.252757645174036
0.181684334200671 -1.453627281738299 0.430635440528575
0.181684334200671 -1.453627281738299 1.272331983379881
0.181684334200671 -1.434052943532455 0.489358455146108
0.181684334200671 -1.434052943532455 1.291906321585725
0.181684334200671 -1.414478605326610 0.528507131557797
0.181684334200671 -1.414478605326610 1.311480659791569
0.181684334200671 -1.394904267120766 0.587230146175330
0.181684334200671 -1.394904267120766 1.311480659791569
0.181684334200671 -1.375329928914922 0.626378822587018
0.181684334200671 -1.375329928914922 1.331054997997414
0.181684334200671 -1.355755590709077 0.685101837204551
0.181684334200671 -1.355755590709077 1.331054997997414
0.181684334200671 -1.336181252503233 0.724250513616240
0.181684334200671 -1.336181252503233 1.565947056467545
0.181684334200671 -1.316606914297389 0.763399190027928
0.181684334200671 -1.316606914297389 1.605095732879234
0.181684334200671 -1.297032576091544 1.135311615938970
0.181684334200671 -1.297032576091544 1.624670071085078
0.181684334200671 -1.277458237885700 1.135311615938970
0.181684334200671 -1.277458237885700 1.644244409290923
0.181684334200671 -1.257883899679856 1.154885954144815
0.181684334200671 -1.257883899679856 1.644244409290923
0.181684334200671 -1.238309561474011 1.135311615938970
0.181684334200671 -1.238309561474011 1.644244409290923
0.181684334200671 -1.218735223268167 1.154885954144815
0.181684334200671 -1.218735223268167 1.644244409290923
0.181684334200671 -1.199160885062323 1.194034630556503
0.181684334200671 -1.199160885062323 1.624670071085078
0.181684334200671 -1.179586546856479 1.448501027232479
0.181684334200671 -1.179586546856479 1.624670071085078
0.181684334200671 -1.160012208650634 1.448501027232479
0.181684334200671 -1.160012208650634 1.605095732879234
0.181684334200671 -1.140437870444790 1.487649703644168
0.181684334200671 -1.140437870444790 1.585521394673390
0.201258672406516 -1.649370663796742 0.058723014617533
0.201258672406516 -1.649370663796742 0.058723014617533
0.201258672406516 -1.629796325590898 0.000000000000000
0.201258672406516 -1.629796325590898 0.078297352823377
0.201258672406516 -1.610221987385053 0.000000000000000
0.201258672406516 -1.610221987385053 0.058723014617533
0.201258672406516 -1.590647649179209 0.000000000000000
0.201258672406516 -1.590647649179209 0.058723014617533
0.201258672406516 -1.571073310973365 0.000000000000000
0.201258672406516 -1.571073310973365 0.019574338205844
0.201258672406516 -1.531924634561676 1.076588601321437
0.201258672406516 -1.531924634561676 1.135311615938970
0.201258672406516 -1.512350296355832 0.411061102322731
0.201258672406516 -1.512350296355832 1.174460292350659
0.201258672406516 -1.492775958149988 0.391486764116886
0.201258672406516 -1.492775958149988 1.252757645174036
0.201258672406516 -1.473201619944143 0.332763749499353
0.201258672406516 -1.473201619944143 1.272331983379881
0.201258672406516 -1.453627281738299 0.391486764116886
0.201258672406516 -1.453627281738299 1.291906321585725
0.201258672406516 -1.434052943532455 0.469784116940264
0.201258672406516 -1.434052943532455 1.311480659791569
0.201258672406516 -1.414478605326610 0.469784116940264
0.201258672406516 -1.414478605326610 1.331054997997414
0.201258672406516 -1.394904267120766 0.508932793351952
0.201258672406516 -1.394904267120766 1.331054997997414
0.201258672406516 -1.375329928914922 0.587230146175330
0.201258672406516 -1.375329928914922 1.350629336203258
0.201258672406516 -1.355755590709077 0.606804484381174
0.201258672406516 -1.355755590709077 1.350629336203258
0.201258672406516 -1.336181252503233 0.704676175410395
0.201258672406516 -1.336181252503233 1.585521394673390
0.201258672406516 -1.316606914297389 0.724250513616240
0.201258672406516 -1.316606914297389 1.585521394673390
0.201258672406516 -1.297032576091544 0.763399190027928
0.201258672406516 -1.297032576091544 1.624670071085078
0.201258672406516 -1.277458237885700 1.135311615938970
0.201258672406516 -1.277458237885700 1.624670071085078
0.201258672406516 -1.257883899679856 1.135311615938970
0.201258672406516 -1.257883899679856 1.624670071085078
0.201258672406516 -1.238309561474011 1.154885954144815
0.201258672406516 -1.238309561474011 1.644244409290923
0.201258672406516 -1.218735223268167 1.174460292350659
0.201258672406516 -1.218735223268167 1.644244409290923
0.201258672406516 -1.199160885062323 1.233183306968192
0.201258672406516 -1.199160885062323 1.624670071085078
0.201258672406516 -1.179586546856479 1.448501027232479
0.201258672406516 -1.179586546856479 1.624670071085078
0.201258672406516 -1.160012208650634 1.448501027232479
0.201258672406516 -1.160012208650634 1.605095732879234
0.201258672406516 -1.140437870444790 1.468075365438324
0.201258672406516 -1.140437870444790 1.585521394673390
0.201258672406516 -1.120863532238946 1.487649703644168
0.201258672406516 -1.120863532238946 1.487649703644168
0.220833010612360 -1.649370663796742 0.078297352823377
0.220833010612360 -1.649370663796742 0.078297352823377
0.220833010612360 -1.629796325590898 0.019574338205844
0.220833010612360 -1.629796325590898 0.078297352823377
0.220833010612360 -1.610221987385053 0.000000000000000
0.220833010612360 -1.610221987385053 0.097871691029222
0.220833010612360 -1.590647649179209 0.000000000000000
0.220833010612360 -1.590647649179209 0.097871691029222
0.220833010612360 -1.571073310973365 0.000000000000000
0.220833010612360 -1.571073310973365 0.039148676411689
0.220833010612360 -1.531924634561676 0.411061102322731
0.220833010612360 -1.531924634561676 1.135311615938970
0.220833010612360 -1.512350296355832 0.254466396675976
0.220833010612360 -1.512350296355832 1.233183306968192
0.220833010612360 -1.492775958149988 0.293615073087665
0.220833010612360 -1.492775958149988 1.272331983379881
0.220833010612360 -1.473201619944143 0.313189411293509
0.220833010612360 -1.473201619944143 1.272331983379881
0.220833010612360 -1.453627281738299 0.371912425911042
0.220833010612360 -1.453627281738299 1.311480659791569
0.220833010612360 -1.434052943532455 0.450209778734419
0.220833010612360 -1.434052943532455 1.311480659791569
0.220833010612360 -1.414478605326610 0.450209778734419
0.220833010612360 -1.414478605326610 1.331054997997414
0.220833010612360 -1.394904267120766 0.450209778734419
0.220833010612360 -1.394904267120766 1.350629336203258
0.220833010612360 -1.375329928914922 0.450209778734419
0.220833010612360 -1.375329928914922 1.370203674409102
0.220833010612360 -1.355755590709077 0.528507131557797
0.220833010612360 -1.355755590709077 1.409352350820791
0.220833010612360 -1.336181252503233 0.665527498998707
0.220833010612360 -1.336181252503233 1.585521394673390
0.220833010612360 -1.316606914297389 0.704676175410395
0.220833010612360 -1.316606914297389 1.585521394673390
0.220833010612360 -1.297032576091544 0.724250513616240
0.220833010612360 -1.297032576091544 1.605095732879234
0.220833010612360 -1.277458237885700 0.782973528233773
0.220833010612360 -1.277458237885700 1.624670071085078
0.220833010612360 -1.257883899679856 1.135311615938970
0.220833010612360 -1.257883899679856 1.624670071085078
0.220833010612360 -1.238309561474011 1.174460292350659
0.220833010612360 -1.238309561474011 1.624670071085078
0.220833010612360 -1.218735223268167 1.213608968762348
0.220833010612360 -1.218735223268167 1.624670071085078
0.220833010612360 -1.199160885062323 1.252757645174036
0.220833010612360 -1.199160885062323 1.624670071085078
0.220833010612360 -1.179586546856479 1.448501027232479
0.220833010612360 -1.179586546856479 1.605095732879234
0.220833010612360 -1.160012208650634 1.468075365438324
0.220833010612360 -1.160012208650634 1.605095732879234
0.220833010612360 -1.140437870444790 1.468075365438324
0.220833010612360 -1.140437870444790 1.565947056467545
0.220833010612360 -1.120863532238946 1.487649703644168
0.220833010612360 -1.120863532238946 1.526798380055857
0.240407348818204 -1.629796325590898 0.039148676411689
0.240407348818204 -1.629796325590898 0.117446029235066
0.240407348818204 -1.610221987385053 0.000000000000000
0.240407348818204 -1.610221987385053 0.117446029235066
0.240407348818204 -1.590647649179209 0.000000000000000
0.240407348818204 -1.590647649179209 0.137020367440910
0.240407348818204 -1.571073310973365 0.000000000000000
0.240407348818204 -1.571073310973365 0.137020367440910
0.240407348818204 -1.551498972767521 0.000000000000000
0.240407348818204 -1.551498972767521 0.469784116940264
0.240407348818204 -1.531924634561676 0.176169043852599
0.240407348818204 -1.531924634561676 1.213608968762348
0.240407348818204 -1.512350296355832 0.215317720264287
0.240407348818204 -1.512350296355832 1.272331983379881
0.240407348818204 -1.492775958149988 0.254466396675976
0.240407348818204 -1.492775958149988 1.272331983379881
0.240407348818204 -1.473201619944143 0.293615073087665
0.240407348818204 -1.473201619944143 1.291906321585725
0.240407348818204 -1.453627281738299 0.332763749499353
0.240407348818204 -1.453627281738299 1.311480659791569
0.240407348818204 -1.434052943532455 0.411061102322731
0.240407348818204 -1.434052943532455 1.331054997997414
0.240407348818204 -1.414478605326610 0.430635440528575
0.240407348818204 -1.414478605326610 1.350629336203258
0.240407348818204 -1.394904267120766 0.430635440528575
0.240407348818204 -1.394904267120766 1.370203674409102
0.240407348818204 -1.375329928914922 0.430635440528575
0.240407348818204 -1.375329928914922 1.370203674409102
0.240407348818204 -1.355755590709077 0.450209778734419
0.240407348818204 -1.355755590709077 1.428926689026635
0.240407348818204 -1.336181252503233 0.469784116940264
0.240407348818204 -1.336181252503233 1.585521394673390
0.240407348818204 -1.316606914297389 0.665527498998707
0.240407348818204 -1.316606914297389 1.565947056467545
0.240407348818204 -1.297032576091544 0.685101837204551
0.240407348818204 -1.297032576091544 1.585521394673390
0.240407348818204 -1.277458237885700 0.724250513616240
0.240407348818204 -1.277458237885700 1.605095732879234
0.240407348818204 -1.257883899679856 0.782973528233773
0.240407348818204 -1.257883899679856 1.605095732879234
0.240407348818204 -1.238309561474011 1.194034630556503
0.240407348818204 -1.238309561474011 1.624670071085078
0.240407348818204 -1.218735223268167 1.233183306968192
0.240407348818204 -1.218735223268167 1.605095732879234
0.240407348818204 -1.199160885062323 1.448501027232479
0.240407348818204 -1.199160885062323 1.605095732879234
0.240407348818204 -1.179586546856479 1.468075365438324
0.240407348818204 -1.179586546856479 1.605095732879234
0.240407348818204 -1.160012208650634 1.487649703644168
0.240407348818204 -1.160012208650634 1.585521394673390
0.240407348818204 -1.140437870444790 1.487649703644168
0.240407348818204 -1.140437870444790 1.585521394673390
0.240407348818204 -1.120863532238946 1.507224041850012
0.240407348818204 -1.120863532238946 1.526798380055857
0.259981687024049 -1.629796325590898 0.058723014617533
0.259981687024049 -1.629796325590898 0.117446029235066
0.259981687024049 -1.610221987385053 0.019574338205844
0.259981687024049 -1.610221987385053 0.156594705646755
0.259981687024049 -1.590647649179209 0.000000000000000
0.259981687024049 -1.590647649179209 0.156594705646755
0.259981687024049 -1.571073310973365 0.000000000000000
0.259981687024049 -1.571073310973365 0.176169043852599
0.259981687024049 -1.551498972767521 0.000000000000000
0.259981687024049 -1.551498972767521 1.194034630556503
0.259981687024049 -1.531924634561676 0.137020367440910
0.259981687024049 -1.531924634561676 1.272331983379881
0.259981687024049 -1.512350296355832 0.176169043852599
0.259981687024049 -1.512350296355832 1.291906321585725
0.259981687024049 -1.492775958149988 0.215317720264287
0.259981687024049 -1.492775958149988 1.291906321585725
0.259981687024049 -1.473201619944143 0.254466396675976
0.259981687024049 -1.473201619944143 1.311480659791569
0.259981687024049 -1.453627281738299 0.293615073087665
0.259981687024049 -1.453627281738299 1.331054997997414
0.259981687024049 -1.434052943532455 0.391486764116886
0.259981687024049 -1.434052943532455 1.350629336203258
0.259981687024049 -1.414478605326610 0.411061102322731
0.259981687024049 -1.414478605326610 1.350629336203258
0.259981687024049 -1.394904267120766 0.391486764116886
0.259981687024049 -1.394904267120766 1.370203674409102
0.259981687024049 -1.375329928914922 0.411061102322731
0.259981687024049 -1.375329928914922 1.389778012614947
0.259981687024049 -1.355755590709077 0.411061102322731
0.259981687024049 -1.355755590709077 1.428926689026635
0.259981687024049 -1.336181252503233 0.430635440528575
0.259981687024049 -1.336181252503233 1.546372718261701
0.259981687024049 -1.316606914297389 0.469784116940264
0.259981687024049 -1.316606914297389 1.546372718261701
0.259981687024049 -1.297032576091544 0.665527498998707
0.259981687024049 -1.297032576091544 1.565947056467545
0.259981687024049 -1.277458237885700 0.685101837204551
0.259981687024049 -1.277458237885700 1.605095732879234
0.259981687024049 -1.257883899679856 0.724250513616240
0.259981687024049 -1.257883899679856 1.605095732879234
0.259981687024049 -1.238309561474011 0.763399190027928
0.259981687024049 -1.238309561474011 1.624670071085078
0.259981687024049 -1.218735223268167 1.233183306968192
0.259981687024049 -1.218735223268167 1.605095732879234
0.259981687024049 -1.199160885062323 1.487649703644168
0.259981687024049 -1.199160885062323 1.605095732879234
0.259981687024049 -1.179586546856479 1.487649703644168
0.259981687024049 -1.179586546856479 1.605095732879234
0.259981687024049 -1.160012208650634 1.487649703644168
0.259981687024049 -1.160012208650634 1.605095732879234
0.259981687024049 -1.140437870444790 1.487649703644168
0.259981687024049 -1.140437870444790 1.585521394673390
0.259981687024049 -1.120863532238946 1.526798380055857
0.259981687024049 -1.120863532238946 1.526798380055857
0.279556025229893 -1.610221987385053 0.039148676411689
0.279556025229893 -1.610221987385053 0.097871691029222
0.279556025229893 -1.590647649179209 0.019574338205844
0.279556025229893 -1.590647649179209 0.176169043852599
0.279556025229893 -1.571073310973365 0.000000000000000
0.279556025229893 -1.571073310973365 0.195743382058443
0.279556025229893 -1.551498972767521 0.019574338205844
0.279556025229893 -1.551498972767521 1.115737277733126
0.279556025229893 -1.531924634561676 0.117446029235066
0.279556025229893 -1.531924634561676 1.272331983379881
0.279556025229893 -1.512350296355832 0.176169043852599
0.279556025229893 -1.512350296355832 1.311480659791569
0.279556025229893 -1.492775958149988 0.195743382058443
0.279556025229893 -1.492775958149988 1.291906321585725
0.279556025229893 -1.473201619944143 0.254466396675976
0.279556025229893 -1.473201619944143 1.311480659791569
0.279556025229893 -1.453627281738299 0.274040734881820
0.279556025229893 -1.453627281738299 1.331054997997414
0.279556025229893 -1.434052943532455 0.352338087705198
0.279556025229893 -1.434052943532455 1.350629336203258
0.279556025229893 -1.414478605326610 0.371912425911042
0.279556025229893 -1.414478605326610 1.370203674409102
0.279556025229893 -1.394904267120766 0.411061102322731
0.279556025229893 -1.394904267120766 1.389778012614947
0.279556025229893 -1.375329928914922 0.430635440528575
0.279556025229893 -1.375329928914922 1.409352350820791
0.279556025229893 -1.355755590709077 0.411061102322731
0.279556025229893 -1.355755590709077 1.428926689026635
0.279556025229893 -1.336181252503233 0.411061102322731
0.279556025229893 -1.336181252503233 1.428926689026635
0.279556025229893 -1.316606914297389 0.430635440528575
0.279556025229893 -1.316606914297389 1.546372718261701
0.279556025229893 -1.297032576091544 0.469784116940264
0.279556025229893 -1.297032576091544 1.546372718261701
0.279556025229893 -1.277458237885700 0.508932793351952
0.279556025229893 -1.277458237885700 1.585521394673390
0.279556025229893 -1.257883899679856 0.685101837204551
0.279556025229893 -1.257883899679856 1.605095732879234
0.279556025229893 -1.238309561474011 0.724250513616240
0.279556025229893 -1.238309561474011 1.624670071085078
0.279556025229893 -1.218735223268167 1.252757645174036
0.279556025229893 -1.218735223268167 1.605095732879234
0.279556025229893 -1.199160885062323 1.507224041850012
0.279556025229893 -1.199160885062323 1.605095732879234
0.279556025229893 -1.179586546856479 1.487649703644168
0.279556025229893 -1.179586546856479 1.605095732879234
0.279556025229893 -1.160012208650634 1.507224041850012
0.279556025229893 -1.160012208650634 1.605095732879234
0.279556025229893 -1.140437870444790 1.507224041850012
0.279556025229893 -1.140437870444790 1.585521394673390
0.299130363435737 -1.610221987385053 0.058723014617533
0.299130363435737 -1.610221987385053 0.058723014617533
0.299130363435737 -1.590647649179209 0.039148676411689
0.299130363435737 -1.590647649179209 0.078297352823377
0.299130363435737 -1.571073310973365 0.039148676411689
0.299130363435737 -1.571073310973365 0.078297352823377
0.299130363435737 -1.551498972767521 0.058723014617533
0.299130363435737 -1.551498972767521 1.135311615938970
0.299130363435737 -1.531924634561676 0.234892058470132
0.299130363435737 -1.531924634561676 1.252757645174036
0.299130363435737 -1.512350296355832 0.254466396675976
0.299130363435737 -1.512350296355832 1.311480659791569
0.299130363435737 -1.492775958149988 0.254466396675976
0.299130363435737 -1.492775958149988 1.311480659791569
0.299130363435737 -1.473201619944143 0.293615073087665
0.299130363435737 -1.473201619944143 1.331054997997414
0.299130363435737 -1.453627281738299 0.332763749499353
0.299130363435737 -1.453627281738299 1.350629336203258
0.299130363435737 -1.434052943532455 0.391486764116886
0.299130363435737 -1.434052943532455 1.370203674409102
0.299130363435737 -1.414478605326610 0.450209778734419
0.299130363435737 -1.414478605326610 1.389778012614947
0.299130363435737 -1.394904267120766 0.450209778734419
0.299130363435737 -1.394904267120766 1.389778012614947
0.299130363435737 -1.375329928914922 0.450209778734419
0.299130363435737 -1.375329928914922 1.409352350820791
0.299130363435737 -1.355755590709077 0.430635440528575
0.299130363435737 -1.355755590709077 1.428926689026635
0.299130363435737 -1.336181252503233 0.430635440528575
0.299130363435737 -1.336181252503233 1.428926689026635
0.299130363435737 -1.316606914297389 0.430635440528575
0.299130363435737 -1.316606914297389 1.448501027232479
0.299130363435737 -1.297032576091544 0.430635440528575
0.299130363435737 -1.297032576091544 1.526798380055857
0.299130363435737 -1.277458237885700 0.450209778734419
0.299130363435737 -1.277458237885700 1.565947056467545
0.299130363435737 -1.257883899679856 0.665527498998707
0.299130363435737 -1.257883899679856 1.605095732879234
0.299130363435737 -1.238309561474011 0.704676175410395
0.299130363435737 -1.238309561474011 1.605095732879234
0.299130363435737 -1.218735223268167 1.291906321585725
0.299130363435737 -1.218735223268167 1.624670071085078
0.299130363435737 -1.199160885062323 1.507224041850012
0.299130363435737 -1.199160885062323 1.624670071085078
0.299130363435737 -1.179586546856479 1.507224041850012
0.299130363435737 -1.179586546856479 1.624670071085078
0.299130363435737 -1.160012208650634 1.507224041850012
0.299130363435737 -1.160012208650634 1.605095732879234
0.299130363435737 -1.140437870444790 1.526798380055857
0.299130363435737 -1.140437870444790 1.585521394673390
0.318704701641582 -1.551498972767521 0.489358455146108
0.318704701641582 -1.551498972767521 1.154885954144815
0.318704701641582 -1.531924634561676 0.313189411293509
0.318704701641582 -1.531924634561676 1.252757645174036
0.318704701641582 -1.512350296355832 0.313189411293509
0.318704701641582 -1.512350296355832 1.311480659791569
0.318704701641582 -1.492775958149988 0.332763749499353
0.318704701641582 -1.492775958149988 1.331054997997414
0.318704701641582 -1.473201619944143 0.391486764116886
0.318704701641582 -1.473201619944143 1.350629336203258
0.318704701641582 -1.453627281738299 0.391486764116886
0.318704701641582 -1.453627281738299 1.350629336203258
0.318704701641582 -1.434052943532455 0.469784116940264
0.318704701641582 -1.434052943532455 1.389778012614947
0.318704701641582 -1.414478605326610 0.469784116940264
0.318704701641582 -1.414478605326610 1.389778012614947
0.318704701641582 -1.394904267120766 0.469784116940264
0.318704701641582 -1.394904267120766 1.409352350820791
0.318704701641582 -1.375329928914922 0.450209778734419
0.318704701641582 -1.375329928914922 1.428926689026635
0.318704701641582 -1.355755590709077 0.450209778734419
0.318704701641582 -1.355755590709077 1.448501027232479
0.318704701641582 -1.336181252503233 0.430635440528575
0.318704701641582 -1.336181252503233 1.448501027232479
0.318704701641582 -1.316606914297389 0.430635440528575
0.318704701641582 -1.316606914297389 1.448501027232479
0.318704701641582 -1.297032576091544 0.430635440528575
0.318704701641582 -1.297032576091544 1.448501027232479
0.318704701641582 -1.277458237885700 0.450209778734419
0.318704701641582 -1.277458237885700 1.565947056467545
0.318704701641582 -1.257883899679856 0.450209778734419
0.318704701641582 -1.257883899679856 1.585521394673390
0.318704701641582 -1.238309561474011 0.645953160792862
0.318704701641582 -1.238309561474011 1.585521394673390
0.318704701641582 -1.218735223268167 1.311480659791569
0.318704701641582 -1.218735223268167 1.605095732879234
0.318704701641582 -1.199160885062323 1.507224041850012
0.318704701641582 -1.199160885062323 1.624670071085078
0.318704701641582 -1.179586546856479 1.507224041850012
0.318704701641582 -1.179586546856479 1.585521394673390
0.318704701641582 -1.160012208650634 1.546372718261701
0.318704701641582 -1.160012208650634 1.565947056467545
0.338279039847426 -1.551498972767521 0.978716910292216
0.338279039847426 -1.551498972767521 1.115737277733126
0.338279039847426 -1.531924634561676 0.430635440528575
0.338279039847426 -1.531924634561676 1.213608968762348
0.338279039847426 -1.512350296355832 0.411061102322731
0.338279039847426 -1.512350296355832 1.272331983379881
0.338279039847426 -1.492775958149988 0.391486764116886
0.338279039847426 -1.492775958149988 1.331054997997414
0.338279039847426 -1.473201619944143 0.411061102322731
0.338279039847426 -1.473201619944143 1.350629336203258
0.338279039847426 -1.453627281738299 0.489358455146108
0.338279039847426 -1.453627281738299 1.370203674409102
0.338279039847426 -1.434052943532455 0.489358455146108
0.338279039847426 -1.434052943532455 1.389778012614947
0.338279039847426 -1.414478605326610 0.469784116940264
0.338279039847426 -1.414478605326610 1.409352350820791
0.338279039847426 -1.394904267120766 0.469784116940264
0.338279039847426 -1.394904267120766 1.428926689026635
0.338279039847426 -1.375329928914922 0.469784116940264
0.338279039847426 -1.375329928914922 1.448501027232479
0.338279039847426 -1.355755590709077 0.430635440528575
0.338279039847426 -1.355755590709077 1.468075365438324
0.338279039847426 -1.336181252503233 0.430635440528575
0.338279039847426 -1.336181252503233 1.448501027232479
0.338279039847426 -1.316606914297389 0.430635440528575
0.338279039847426 -1.316606914297389 1.448501027232479
0.338279039847426 -1.297032576091544 0.430635440528575
0.338279039847426 -1.297032576091544 1.448501027232479
0.338279039847426 -1.277458237885700 0.430635440528575
0.338279039847426 -1.277458237885700 1.448501027232479
0.338279039847426 -1.257883899679856 0.450209778734419
0.338279039847426 -1.257883899679856 1.565947056467545
0.338279039847426 -1.238309561474011 0.450209778734419
0.338279039847426 -1.238309561474011 1.565947056467545
0.338279039847426 -1.218735223268167 1.507224041850012
0.338279039847426 -1.218735223268167 1.565947056467545
0.357853378053270 -1.551498972767521 0.978716910292216
0.357853378053270 -1.551498972767521 1.115737277733126
0.357853378053270 -1.531924634561676 0.919993895674683
0.357853378053270 -1.531924634561676 1.194034630556503
0.357853378053270 -1.512350296355832 0.430635440528575
0.357853378053270 -1.512350296355832 1.252757645174036
0.357853378053270 -1.492775958149988 0.508932793351952
0.357853378053270 -1.492775958149988 1.291906321585725
0.357853378053270 -1.473201619944143 0.508932793351952
0.357853378053270 -1.473201619944143 1.350629336203258
0.357853378053270 -1.453627281738299 0.508932793351952
0.357853378053270 -1.453627281738299 1.370203674409102
0.357853378053270 -1.434052943532455 0.508932793351952
0.357853378053270 -1.434052943532455 1.389778012614947
0.357853378053270 -1.414478605326610 0.489358455146108
0.357853378053270 -1.414478605326610 1.428926689026635
0.357853378053270 -1.394904267120766 0.469784116940264
0.357853378053270 -1.394904267120766 1.428926689026635
0.357853378053270 -1.375329928914922 0.430635440528575
0.357853378053270 -1.375329928914922 1.448501027232479
0.357853378053270 -1.355755590709077 0.430635440528575
0.357853378053270 -1.355755590709077 1.468075365438324
0.357853378053270 -1.336181252503233 0.430635440528575
0.357853378053270 -1.336181252503233 1.468075365438324
0.357853378053270 -1.316606914297389 0.430635440528575
0.357853378053270 -1.316606914297389 1.448501027232479
0.357853378053270 -1.297032576091544 0.430635440528575
0.357853378053270 -1.297032576091544 1.448501027232479
0.357853378053270 -1.277458237885700 0.450209778734419
0.357853378053270 -1.277458237885700 1.448501027232479
0.357853378053270 -1.257883899679856 0.450209778734419
0.357853378053270 -1.257883899679856 1.448501027232479
0.357853378053270 -1.238309561474011 0.450209778734419
0.357853378053270 -1.238309561474011 1.428926689026635
0.357853378053270 -1.218735223268167 0.626378822587018
0.357853378053270 -1.218735223268167 0.626378822587018
0.377427716259115 -1.531924634561676 0.939568233880527
0.377427716259115 -1.531924634561676 1.154885954144815
0.377427716259115 -1.512350296355832 0.567655807969485
0.377427716259115 -1.512350296355832 1.213608968762348
0.377427716259115 -1.492775958149988 0.528507131557797
0.377427716259115 -1.492775958149988 1.252757645174036
0.377427716259115 -1.473201619944143 0.528507131557797
0.377427716259115 -1.473201619944143 1.311480659791569
0.377427716259115 -1.453627281738299 0.528507131557797
0.377427716259115 -1.453627281738299 1.350629336203258
0.377427716259115 -1.434052943532455 0.508932793351952
0.377427716259115 -1.434052943532455 1.370203674409102
0.377427716259115 -1.414478605326610 0.469784116940264
0.377427716259115 -1.414478605326610 1.409352350820791
0.377427716259115 -1.394904267120766 0.430635440528575
0.377427716259115 -1.394904267120766 1.448501027232479
0.377427716259115 -1.375329928914922 0.411061102322731
0.377427716259115 -1.375329928914922 1.468075365438324
0.377427716259115 -1.355755590709077 0.411061102322731
0.377427716259115 -1.355755590709077 1.468075365438324
0.377427716259115 -1.336181252503233 0.430635440528575
0.377427716259115 -1.336181252503233 1.468075365438324
0.377427716259115 -1.316606914297389 0.430635440528575
0.377427716259115 -1.316606914297389 1.468075365438324
0.377427716259115 -1.297032576091544 0.430635440528575
0.377427716259115 -1.297032576091544 1.448501027232479
0.377427716259115 -1.277458237885700 0.430635440528575
0.377427716259115 -1.277458237885700 1.448501027232479
0.377427716259115 -1.257883899679856 0.450209778734419
0.377427716259115 -1.257883899679856 1.448501027232479
0.377427716259115 -1.238309561474011 0.450209778734419
0.377427716259115 -1.238309561474011 1.428926689026635
0.377427716259115 -1.218735223268167 0.548081469763641
0.377427716259115 -1.218735223268167 0.626378822587018
0.397002054464959 -1.531924634561676 0.939568233880527
0.397002054464959 -1.531924634561676 0.959142572086372
0.397002054464959 -1.512350296355832 0.548081469763641
0.397002054464959 -1.512350296355832 1.135311615938970
0.397002054464959 -1.492775958149988 0.548081469763641
0.397002054464959 -1.492775958149988 1.213608968762348
0.397002054464959 -1.473201619944143 0.528507131557797
0.397002054464959 -1.473201619944143 1.252757645174036
0.397002054464959 -1.453627281738299 0.508932793351952
0.397002054464959 -1.453627281738299 1.291906321585725
