ply
format ascii 1.0
element vertex 751
property double x
property double y
property double z
property uchar red
property uchar green
property uchar blue
end_header
0.357853378053270 -1.316606914297389 0.528507131557797 29 8 6
0.357853378053270 -1.316606914297389 0.548081469763641 27 6 7
0.357853378053270 -1.316606914297389 0.567655807969485 26 5 6
0.357853378053270 -1.316606914297389 0.587230146175330 29 6 13
0.357853378053270 -1.316606914297389 0.606804484381174 28 8 10
0.357853378053270 -1.316606914297389 0.626378822587018 31 8 12
0.357853378053270 -1.316606914297389 0.645953160792862 43 10 21
0.357853378053270 -1.316606914297389 0.665527498998707 49 18 25
0.357853378053270 -1.316606914297389 0.685101837204551 65 24 41
0.357853378053270 -1.316606914297389 0.704676175410395 69 31 50
0.357853378053270 -1.316606914297389 0.724250513616240 70 30 45
0.357853378053270 -1.316606914297389 0.743824851822084 65 24 37
0.357853378053270 -1.316606914297389 0.763399190027928 55 11 23
0.357853378053270 -1.316606914297389 0.782973528233773 32 7 11
0.357853378053270 -1.316606914297389 0.802547866439617 35 7 7
0.357853378053270 -1.316606914297389 0.822122204645461 34 8 4
0.357853378053270 -1.316606914297389 0.841696542851306 35 8 6
0.357853378053270 -1.316606914297389 0.861270881057150 47 7 5
0.357853378053270 -1.316606914297389 0.880845219262994 45 9 8
0.357853378053270 -1.316606914297389 0.900419557468839 48 8 8
0.357853378053270 -1.316606914297389 0.919993895674683 43 8 2
0.357853378053270 -1.316606914297389 0.939568233880527 31 6 7
0.357853378053270 -1.316606914297389 0.959142572086372 28 4 5
0.357853378053270 -1.316606914297389 0.978716910292216 25 5 3
0.357853378053270 -1.316606914297389 0.998291248498060 19 9 3
0.357853378053270 -1.316606914297389 1.017865586703905 28 14 12
0.357853378053270 -1.316606914297389 1.037439924909749 29 14 10
0.357853378053270 -1.316606914297389 1.057014263115593 38 20 18
0.357853378053270 -1.316606914297389 1.076588601321437 77 12 12
0.357853378053270 -1.316606914297389 1.096162939527282 92 14 9
0.357853378053270 -1.316606914297389 1.115737277733126 101 15 13
0.357853378053270 -1.316606914297389 1.135311615938970 79 13 9
0.357853378053270 -1.316606914297389 1.154885954144815 62 11 9
0.357853378053270 -1.316606914297389 1.174460292350659 45 9 9
0.357853378053270 -1.316606914297389 1.194034630556503 86 18 16
0.357853378053270 -1.316606914297389 1.213608968762348 108 61 48
0.357853378053270 -1.316606914297389 1.233183306968192 120 73 55
0.357853378053270 -1.316606914297389 1.252757645174036 121 70 49
0.357853378053270 -1.316606914297389 1.272331983379881 117 75 68
0.357853378053270 -1.316606914297389 1.291906321585725 107 68 59
0.357853378053270 -1.316606914297389 1.311480659791569 117 73 63
0.357853378053270 -1.316606914297389 1.331054997997414 136 78 51
0.357853378053270 -1.316606914297389 1.350629336203258 167 122 82
0.357853378053270 -1.316606914297389 1.370203674409102 196 75 79
0.357853378053270 -1.316606914297389 1.389778012614947 108 22 17
0.357853378053270 -1.316606914297389 1.409352350820791 145 22 15
0.357853378053270 -1.316606914297389 1.428926689026635 168 79 32
0.357853378053270 -1.316606914297389 1.448501027232479 210 135 120
0.357853378053270 -1.297032576091544 0.430635440528575 33 6 10
0.357853378053270 -1.297032576091544 0.450209778734419 33 7 6
0.357853378053270 -1.297032576091544 0.469784116940264 33 7 4
0.357853378053270 -1.297032576091544 0.489358455146108 42 6 7
0.357853378053270 -1.297032576091544 0.508932793351952 53 8 4
0.357853378053270 -1.297032576091544 0.528507131557797 76 14 5
0.357853378053270 -1.297032576091544 0.548081469763641 89 21 19
0.357853378053270 -1.297032576091544 0.567655807969485 119 43 25
0.357853378053270 -1.297032576091544 0.587230146175330 136 55 31
0.357853378053270 -1.297032576091544 0.606804484381174 146 71 61
0.357853378053270 -1.297032576091544 0.626378822587018 168 102 89
0.357853378053270 -1.297032576091544 0.645953160792862 172 108 92
0.357853378053270 -1.297032576091544 0.665527498998707 177 111 90
0.357853378053270 -1.297032576091544 0.685101837204551 173 106 86
0.357853378053270 -1.297032576091544 0.704676175410395 176 105 83
0.357853378053270 -1.297032576091544 0.724250513616240 158 104 83
0.357853378053270 -1.297032576091544 0.743824851822084 146 88 69
0.357853378053270 -1.297032576091544 0.763399190027928 134 83 63
0.357853378053270 -1.297032576091544 0.782973528233773 133 82 62
0.357853378053270 -1.297032576091544 0.802547866439617 122 78 62
0.357853378053270 -1.297032576091544 0.822122204645461 115 66 63
0.357853378053270 -1.297032576091544 0.841696542851306 95 58 65
0.357853378053270 -1.297032576091544 0.861270881057150 87 48 54
0.357853378053270 -1.297032576091544 0.880845219262994 107 40 39
0.357853378053270 -1.297032576091544 0.900419557468839 97 29 15
0.357853378053270 -1.297032576091544 0.919993895674683 81 14 8
0.357853378053270 -1.297032576091544 0.939568233880527 79 26 28
0.357853378053270 -1.297032576091544 0.959142572086372 67 59 53
0.357853378053270 -1.297032576091544 0.978716910292216 42 18 5
0.357853378053270 -1.297032576091544 0.998291248498060 28 17 13
0.357853378053270 -1.297032576091544 1.135311615938970 66 13 10
0.357853378053270 -1.297032576091544 1.154885954144815 73 12 10
0.357853378053270 -1.297032576091544 1.174460292350659 65 11 9
0.357853378053270 -1.297032576091544 1.194034630556503 64 12 9
0.357853378053270 -1.297032576091544 1.213608968762348 96 50 37
0.357853378053270 -1.297032576091544 1.233183306968192 97 54 42
0.357853378053270 -1.297032576091544 1.252757645174036 99 56 45
0.357853378053270 -1.297032576091544 1.272331983379881 116 70 62
0.357853378053270 -1.297032576091544 1.291906321585725 118 77 67
0.357853378053270 -1.297032576091544 1.311480659791569 133 89 69
0.357853378053270 -1.297032576091544 1.331054997997414 154 91 72
0.357853378053270 -1.297032576091544 1.350629336203258 201 111 86
0.357853378053270 -1.297032576091544 1.370203674409102 220 120 90
0.357853378053270 -1.297032576091544 1.389778012614947 198 94 58
0.357853378053270 -1.297032576091544 1.409352350820791 120 77 65
0.357853378053270 -1.297032576091544 1.428926689026635 85 48 41
0.357853378053270 -1.297032576091544 1.448501027232479 92 63 48
0.357853378053270 -1.277458237885700 0.450209778734419 146 58 37
0.357853378053270 -1.277458237885700 0.469784116940264 155 71 51
0.357853378053270 -1.277458237885700 0.489358455146108 165 81 75
0.357853378053270 -1.277458237885700 0.508932793351952 178 95 75
0.357853378053270 -1.277458237885700 0.528507131557797 182 102 82
0.357853378053270 -1.277458237885700 0.548081469763641 184 102 87
0.357853378053270 -1.277458237885700 0.567655807969485 192 113 85
0.357853378053270 -1.277458237885700 0.587230146175330 203 113 95
0.357853378053270 -1.277458237885700 0.606804484381174 203 117 98
0.357853378053270 -1.277458237885700 0.626378822587018 208 123 97
0.357853378053270 -1.277458237885700 0.645953160792862 214 122 94
0.357853378053270 -1.277458237885700 0.665527498998707 210 129 104
0.357853378053270 -1.277458237885700 0.685101837204551 210 124 95
0.357853378053270 -1.277458237885700 0.704676175410395 202 118 91
0.357853378053270 -1.277458237885700 0.724250513616240 146 98 77
0.357853378053270 -1.277458237885700 0.743824851822084 130 76 48
0.357853378053270 -1.277458237885700 0.763399190027928 123 73 53
0.357853378053270 -1.277458237885700 0.782973528233773 123 78 55
0.357853378053270 -1.277458237885700 0.802547866439617 132 79 58
0.357853378053270 -1.277458237885700 0.822122204645461 132 82 62
0.357853378053270 -1.277458237885700 0.841696542851306 135 82 60
0.357853378053270 -1.277458237885700 0.861270881057150 134 81 61
0.357853378053270 -1.277458237885700 0.880845219262994 136 81 61
0.357853378053270 -1.277458237885700 0.900419557468839 134 76 59
0.357853378053270 -1.277458237885700 0.919993895674683 129 69 57
0.357853378053270 -1.277458237885700 0.939568233880527 126 70 50
0.357853378053270 -1.277458237885700 0.959142572086372 122 60 50
0.357853378053270 -1.277458237885700 1.213608968762348 75 41 36
0.357853378053270 -1.277458237885700 1.233183306968192 82 57 42
0.357853378053270 -1.277458237885700 1.252757645174036 113 67 45
0.357853378053270 -1.277458237885700 1.272331983379881 119 52 47
0.357853378053270 -1.277458237885700 1.291906321585725 145 78 61
0.357853378053270 -1.277458237885700 1.311480659791569 130 72 58
0.357853378053270 -1.277458237885700 1.331054997997414 154 94 70
0.357853378053270 -1.277458237885700 1.350629336203258 172 127 99
0.357853378053270 -1.277458237885700 1.370203674409102 148 117 96
0.357853378053270 -1.277458237885700 1.389778012614947 158 121 101
0.357853378053270 -1.277458237885700 1.409352350820791 178 113 60
0.357853378053270 -1.277458237885700 1.428926689026635 53 26 27
0.357853378053270 -1.277458237885700 1.448501027232479 37 29 25
0.357853378053270 -1.257883899679856 0.450209778734419 192 117 99
0.357853378053270 -1.257883899679856 0.469784116940264 200 124 102
0.357853378053270 -1.257883899679856 0.489358455146108 203 126 102
0.357853378053270 -1.257883899679856 0.508932793351952 217 125 99
0.357853378053270 -1.257883899679856 0.528507131557797 214 122 97
0.357853378053270 -1.257883899679856 0.548081469763641 218 127 98
0.357853378053270 -1.257883899679856 0.567655807969485 220 131 95
0.357853378053270 -1.257883899679856 0.587230146175330 221 131 105
0.357853378053270 -1.257883899679856 0.606804484381174 222 129 104
0.357853378053270 -1.257883899679856 0.626378822587018 230 131 113
0.357853378053270 -1.257883899679856 0.645953160792862 230 132 104
0.357853378053270 -1.257883899679856 0.665527498998707 227 131 99
0.357853378053270 -1.257883899679856 0.685101837204551 215 130 99
0.357853378053270 -1.257883899679856 0.704676175410395 187 124 93
0.357853378053270 -1.257883899679856 0.724250513616240 148 77 57
0.357853378053270 -1.257883899679856 0.743824851822084 100 62 48
0.357853378053270 -1.257883899679856 0.763399190027928 95 56 47
0.357853378053270 -1.257883899679856 0.782973528233773 89 53 39
0.357853378053270 -1.257883899679856 0.802547866439617 108 61 44
0.357853378053270 -1.257883899679856 0.822122204645461 119 71 52
0.357853378053270 -1.257883899679856 0.841696542851306 133 78 52
0.357853378053270 -1.257883899679856 0.861270881057150 134 81 60
0.357853378053270 -1.257883899679856 0.880845219262994 137 80 60
0.357853378053270 -1.257883899679856 1.252757645174036 52 22 28
0.357853378053270 -1.257883899679856 1.272331983379881 105 67 56
0.357853378053270 -1.257883899679856 1.291906321585725 174 75 60
0.357853378053270 -1.257883899679856 1.311480659791569 152 69 58
0.357853378053270 -1.257883899679856 1.331054997997414 105 61 47
0.357853378053270 -1.257883899679856 1.350629336203258 74 47 27
0.357853378053270 -1.257883899679856 1.370203674409102 80 49 43
0.357853378053270 -1.257883899679856 1.389778012614947 139 108 78
0.357853378053270 -1.257883899679856 1.409352350820791 189 113 91
0.357853378053270 -1.257883899679856 1.428926689026635 142 77 75
0.357853378053270 -1.257883899679856 1.448501027232479 58 47 45
0.357853378053270 -1.238309561474011 0.450209778734419 234 139 104
0.357853378053270 -1.238309561474011 0.469784116940264 232 142 107
0.357853378053270 -1.238309561474011 0.489358455146108 227 138 106
0.357853378053270 -1.238309561474011 0.508932793351952 226 134 99
0.357853378053270 -1.238309561474011 0.528507131557797 224 131 98
0.357853378053270 -1.238309561474011 0.548081469763641 184 120 94
0.357853378053270 -1.238309561474011 0.567655807969485 185 118 99
0.357853378053270 -1.238309561474011 0.606804484381174 191 120 98
0.357853378053270 -1.238309561474011 0.626378822587018 186 119 96
0.357853378053270 -1.238309561474011 0.645953160792862 192 122 98
0.357853378053270 -1.238309561474011 0.665527498998707 189 120 92
0.357853378053270 -1.238309561474011 0.685101837204551 188 119 96
0.357853378053270 -1.238309561474011 1.291906321585725 190 109 92
0.357853378053270 -1.238309561474011 1.311480659791569 174 94 74
0.357853378053270 -1.238309561474011 1.331054997997414 114 63 31
0.357853378053270 -1.238309561474011 1.350629336203258 51 42 61
0.357853378053270 -1.238309561474011 1.370203674409102 173 93 81
0.357853378053270 -1.238309561474011 1.389778012614947 181 105 77
0.357853378053270 -1.238309561474011 1.409352350820791 207 134 105
0.357853378053270 -1.238309561474011 1.428926689026635 233 122 82
0.357853378053270 -1.218735223268167 0.626378822587018 40 43 38
0.377427716259115 -1.531924634561676 0.939568233880527 27 6 4
0.377427716259115 -1.531924634561676 0.959142572086372 28 7 2
0.377427716259115 -1.531924634561676 0.978716910292216 28 6 8
0.377427716259115 -1.531924634561676 0.998291248498060 23 6 2
0.377427716259115 -1.531924634561676 1.017865586703905 35 9 9
0.377427716259115 -1.531924634561676 1.037439924909749 52 12 12
0.377427716259115 -1.531924634561676 1.057014263115593 68 11 10
0.377427716259115 -1.531924634561676 1.076588601321437 46 7 15
0.377427716259115 -1.531924634561676 1.096162939527282 49 13 15
0.377427716259115 -1.531924634561676 1.115737277733126 67 30 28
0.377427716259115 -1.531924634561676 1.135311615938970 64 45 48
0.377427716259115 -1.531924634561676 1.154885954144815 51 32 19
0.377427716259115 -1.512350296355832 0.567655807969485 45 50 53
0.377427716259115 -1.512350296355832 0.587230146175330 41 33 38
0.377427716259115 -1.512350296355832 0.606804484381174 50 59 48
0.377427716259115 -1.512350296355832 0.626378822587018 57 69 57
0.377427716259115 -1.512350296355832 0.724250513616240 60 57 38
0.377427716259115 -1.512350296355832 0.743824851822084 41 35 17
0.377427716259115 -1.512350296355832 0.763399190027928 38 10 5
0.377427716259115 -1.512350296355832 0.782973528233773 35 8 6
0.377427716259115 -1.512350296355832 0.802547866439617 33 8 7
0.377427716259115 -1.512350296355832 0.822122204645461 35 8 4
0.377427716259115 -1.512350296355832 0.841696542851306 38 8 8
0.377427716259115 -1.512350296355832 0.861270881057150 37 8 4
0.377427716259115 -1.512350296355832 0.880845219262994 41 8 5
0.377427716259115 -1.512350296355832 0.900419557468839 41 9 10
0.377427716259115 -1.512350296355832 0.919993895674683 44 8 4
0.377427716259115 -1.512350296355832 0.939568233880527 42 9 8
0.377427716259115 -1.512350296355832 0.959142572086372 38 7 5
0.377427716259115 -1.512350296355832 0.978716910292216 47 7 5
0.377427716259115 -1.512350296355832 0.998291248498060 58 7 7
0.377427716259115 -1.512350296355832 1.017865586703905 43 5 7
0.377427716259115 -1.512350296355832 1.037439924909749 36 6 5
0.377427716259115 -1.512350296355832 1.057014263115593 42 9 9
0.377427716259115 -1.512350296355832 1.076588601321437 57 9 12
0.377427716259115 -1.512350296355832 1.096162939527282 43 7 8
0.377427716259115 -1.512350296355832 1.115737277733126 42 4 6
0.377427716259115 -1.512350296355832 1.135311615938970 47 8 8
0.377427716259115 -1.512350296355832 1.154885954144815 38 5 6
0.377427716259115 -1.512350296355832 1.174460292350659 47 8 7
0.377427716259115 -1.512350296355832 1.194034630556503 50 12 14
0.377427716259115 -1.512350296355832 1.213608968762348 71 20 18
0.377427716259115 -1.492775958149988 0.528507131557797 62 12 12
0.377427716259115 -1.492775958149988 0.548081469763641 57 10 7
0.377427716259115 -1.492775958149988 0.567655807969485 56 10 8
0.377427716259115 -1.492775958149988 0.587230146175330 55 8 7
0.377427716259115 -1.492775958149988 0.606804484381174 42 8 5
0.377427716259115 -1.492775958149988 0.626378822587018 46 11 9
0.377427716259115 -1.492775958149988 0.645953160792862 53 15 12
0.377427716259115 -1.492775958149988 0.665527498998707 48 19 7
0.377427716259115 -1.492775958149988 0.685101837204551 48 13 9
0.377427716259115 -1.492775958149988 0.704676175410395 45 12 14
0.377427716259115 -1.492775958149988 0.724250513616240 43 11 11
0.377427716259115 -1.492775958149988 0.743824851822084 43 10 9
0.377427716259115 -1.492775958149988 0.763399190027928 41 8 6
0.377427716259115 -1.492775958149988 0.782973528233773 37 8 2
0.377427716259115 -1.492775958149988 0.802547866439617 38 9 8
0.377427716259115 -1.492775958149988 0.822122204645461 40 9 1
0.377427716259115 -1.492775958149988 0.841696542851306 39 10 8
0.377427716259115 -1.492775958149988 0.861270881057150 39 8 8
0.377427716259115 -1.492775958149988 0.880845219262994 41 8 9
0.377427716259115 -1.492775958149988 0.900419557468839 39 10 6
0.377427716259115 -1.492775958149988 0.919993895674683 40 7 6
0.377427716259115 -1.492775958149988 0.939568233880527 36 8 8
0.377427716259115 -1.492775958149988 0.959142572086372 35 7 5
0.377427716259115 -1.492775958149988 0.978716910292216 50 6 7
0.377427716259115 -1.492775958149988 0.998291248498060 67 15 11
0.377427716259115 -1.492775958149988 1.017865586703905 70 15 10
0.377427716259115 -1.492775958149988 1.037439924909749 45 10 7
0.377427716259115 -1.492775958149988 1.057014263115593 40 8 7
0.377427716259115 -1.492775958149988 1.076588601321437 48 10 5
0.377427716259115 -1.492775958149988 1.096162939527282 51 12 13
0.377427716259115 -1.492775958149988 1.115737277733126 94 21 4
0.377427716259115 -1.492775958149988 1.135311615938970 58 9 10
0.377427716259115 -1.492775958149988 1.154885954144815 60 9 8
0.377427716259115 -1.492775958149988 1.174460292350659 50 7 6
0.377427716259115 -1.492775958149988 1.194034630556503 41 6 9
0.377427716259115 -1.492775958149988 1.213608968762348 35 6 6
0.377427716259115 -1.492775958149988 1.233183306968192 88 13 10
0.377427716259115 -1.492775958149988 1.252757645174036 59 10 9
0.377427716259115 -1.473201619944143 0.528507131557797 57 13 13
0.377427716259115 -1.473201619944143 0.548081469763641 55 11 7
0.377427716259115 -1.473201619944143 0.567655807969485 54 10 7
0.377427716259115 -1.473201619944143 0.587230146175330 51 12 7
0.377427716259115 -1.473201619944143 0.606804484381174 47 10 7
0.377427716259115 -1.473201619944143 0.626378822587018 52 10 9
0.377427716259115 -1.473201619944143 0.645953160792862 48 9 9
0.377427716259115 -1.473201619944143 0.665527498998707 47 7 10
0.377427716259115 -1.473201619944143 0.685101837204551 40 9 7
0.377427716259115 -1.473201619944143 0.704676175410395 40 7 6
0.377427716259115 -1.473201619944143 0.724250513616240 44 5 10
0.377427716259115 -1.473201619944143 0.743824851822084 41 9 4
0.377427716259115 -1.473201619944143 0.763399190027928 41 9 7
0.377427716259115 -1.473201619944143 0.782973528233773 40 9 4
0.377427716259115 -1.473201619944143 0.802547866439617 37 8 5
0.377427716259115 -1.473201619944143 0.822122204645461 37 8 1
0.377427716259115 -1.473201619944143 0.841696542851306 41 11 6
0.377427716259115 -1.473201619944143 0.861270881057150 44 8 5
0.377427716259115 -1.473201619944143 0.880845219262994 38 8 8
0.377427716259115 -1.473201619944143 0.900419557468839 38 8 5
0.377427716259115 -1.473201619944143 0.919993895674683 46 8 7
0.377427716259115 -1.473201619944143 0.939568233880527 44 8 5
0.377427716259115 -1.473201619944143 0.959142572086372 37 7 8
0.377427716259115 -1.473201619944143 0.978716910292216 36 7 7
0.377427716259115 -1.473201619944143 0.998291248498060 23 6 4
0.377427716259115 -1.473201619944143 1.017865586703905 29 7 7
0.377427716259115 -1.473201619944143 1.037439924909749 49 9 4
0.377427716259115 -1.473201619944143 1.057014263115593 55 10 10
0.377427716259115 -1.473201619944143 1.076588601321437 38 7 11
0.377427716259115 -1.473201619944143 1.096162939527282 103 15 9
0.377427716259115 -1.473201619944143 1.115737277733126 93 16 22
0.377427716259115 -1.473201619944143 1.135311615938970 42 19 31
0.377427716259115 -1.473201619944143 1.154885954144815 45 9 8
0.377427716259115 -1.473201619944143 1.174460292350659 53 10 9
0.377427716259115 -1.473201619944143 1.194034630556503 64 10 11
0.377427716259115 -1.473201619944143 1.213608968762348 45 6 4
0.377427716259115 -1.473201619944143 1.233183306968192 60 10 11
0.377427716259115 -1.473201619944143 1.252757645174036 73 10 11
0.377427716259115 -1.473201619944143 1.272331983379881 82 13 8
0.377427716259115 -1.473201619944143 1.291906321585725 98 14 3
0.377427716259115 -1.473201619944143 1.311480659791569 72 12 31
0.377427716259115 -1.453627281738299 0.528507131557797 52 10 6
0.377427716259115 -1.453627281738299 0.548081469763641 51 10 7
0.377427716259115 -1.453627281738299 0.567655807969485 53 9 8
0.377427716259115 -1.453627281738299 0.587230146175330 53 11 6
0.377427716259115 -1.453627281738299 0.606804484381174 53 9 8
0.377427716259115 -1.453627281738299 0.626378822587018 52 10 8
0.377427716259115 -1.453627281738299 0.645953160792862 51 10 9
0.377427716259115 -1.453627281738299 0.665527498998707 46 8 9
0.377427716259115 -1.453627281738299 0.685101837204551 42 9 7
0.377427716259115 -1.453627281738299 0.704676175410395 47 9 8
0.377427716259115 -1.453627281738299 0.724250513616240 44 8 10
0.377427716259115 -1.453627281738299 0.743824851822084 43 11 3
0.377427716259115 -1.453627281738299 0.763399190027928 44 9 8
0.377427716259115 -1.453627281738299 0.782973528233773 38 8 4
0.377427716259115 -1.453627281738299 0.802547866439617 37 7 6
0.377427716259115 -1.453627281738299 0.822122204645461 43 7 11
0.377427716259115 -1.453627281738299 0.841696542851306 48 10 10
0.377427716259115 -1.453627281738299 0.861270881057150 43 8 6
0.377427716259115 -1.453627281738299 0.880845219262994 36 8 6
0.377427716259115 -1.453627281738299 0.900419557468839 39 8 5
0.377427716259115 -1.453627281738299 0.919993895674683 48 8 10
0.377427716259115 -1.453627281738299 0.939568233880527 39 7 5
0.377427716259115 -1.453627281738299 0.959142572086372 35 7 7
0.377427716259115 -1.453627281738299 0.978716910292216 45 10 7
0.377427716259115 -1.453627281738299 0.998291248498060 47 11 1
0.377427716259115 -1.453627281738299 1.017865586703905 38 8 9
0.377427716259115 -1.453627281738299 1.037439924909749 63 11 8
0.377427716259115 -1.453627281738299 1.057014263115593 65 11 11
0.377427716259115 -1.453627281738299 1.076588601321437 46 9 7
0.377427716259115 -1.453627281738299 1.096162939527282 77 13 0
0.377427716259115 -1.453627281738299 1.115737277733126 104 19 8
0.377427716259115 -1.453627281738299 1.135311615938970 142 46 25
0.377427716259115 -1.453627281738299 1.154885954144815 156 105 94
0.377427716259115 -1.453627281738299 1.174460292350659 142 78 64
0.377427716259115 -1.453627281738299 1.194034630556503 104 63 62
0.377427716259115 -1.453627281738299 1.213608968762348 70 18 20
0.377427716259115 -1.453627281738299 1.233183306968192 64 11 8
0.377427716259115 -1.453627281738299 1.252757645174036 87 13 7
0.377427716259115 -1.453627281738299 1.272331983379881 70 10 5
0.377427716259115 -1.453627281738299 1.291906321585725 75 16 9
0.377427716259115 -1.453627281738299 1.311480659791569 71 16 13
0.377427716259115 -1.453627281738299 1.331054997997414 116 23 16
0.377427716259115 -1.453627281738299 1.350629336203258 73 81 70
0.377427716259115 -1.434052943532455 0.508932793351952 46 9 5
0.377427716259115 -1.434052943532455 0.528507131557797 44 9 7
0.377427716259115 -1.434052943532455 0.548081469763641 50 8 12
0.377427716259115 -1.434052943532455 0.567655807969485 47 9 8
0.377427716259115 -1.434052943532455 0.587230146175330 49 9 6
0.377427716259115 -1.434052943532455 0.606804484381174 49 8 7
0.377427716259115 -1.434052943532455 0.626378822587018 54 10 7
0.377427716259115 -1.434052943532455 0.645953160792862 54 10 6
0.377427716259115 -1.434052943532455 0.665527498998707 46 10 10
0.377427716259115 -1.434052943532455 0.685101837204551 49 9 6
0.377427716259115 -1.434052943532455 0.704676175410395 53 8 10
0.377427716259115 -1.434052943532455 0.724250513616240 44 10 8
0.377427716259115 -1.434052943532455 0.743824851822084 48 6 4
0.377427716259115 -1.434052943532455 0.763399190027928 40 7 7
0.377427716259115 -1.434052943532455 0.782973528233773 41 8 7
0.377427716259115 -1.434052943532455 0.802547866439617 43 9 7
0.377427716259115 -1.434052943532455 0.822122204645461 45 9 6
0.377427716259115 -1.434052943532455 0.841696542851306 46 9 5
0.377427716259115 -1.434052943532455 0.861270881057150 40 6 14
0.377427716259115 -1.434052943532455 0.880845219262994 36 7 7
0.377427716259115 -1.434052943532455 0.900419557468839 41 9 7
0.377427716259115 -1.434052943532455 0.919993895674683 41 10 8
0.377427716259115 -1.434052943532455 0.939568233880527 37 8 3
0.377427716259115 -1.434052943532455 0.959142572086372 34 7 8
0.377427716259115 -1.434052943532455 0.978716910292216 36 9 7
0.377427716259115 -1.434052943532455 0.998291248498060 50 10 3
0.377427716259115 -1.434052943532455 1.017865586703905 49 11 10
0.377427716259115 -1.434052943532455 1.037439924909749 84 14 11
0.377427716259115 -1.434052943532455 1.057014263115593 92 16 14
0.377427716259115 -1.434052943532455 1.076588601321437 81 13 9
0.377427716259115 -1.434052943532455 1.096162939527282 54 9 10
0.377427716259115 -1.434052943532455 1.115737277733126 93 15 10
0.377427716259115 -1.434052943532455 1.135311615938970 123 69 39
0.377427716259115 -1.434052943532455 1.154885954144815 223 138 107
0.377427716259115 -1.434052943532455 1.174460292350659 208 132 100
0.377427716259115 -1.434052943532455 1.194034630556503 185 122 99
0.377427716259115 -1.434052943532455 1.213608968762348 197 137 108
0.377427716259115 -1.434052943532455 1.233183306968192 98 48 64
0.377427716259115 -1.434052943532455 1.252757645174036 85 15 11
0.377427716259115 -1.434052943532455 1.272331983379881 71 12 5
0.377427716259115 -1.434052943532455 1.291906321585725 81 19 12
0.377427716259115 -1.434052943532455 1.311480659791569 71 14 16
0.377427716259115 -1.434052943532455 1.331054997997414 136 22 16
0.377427716259115 -1.434052943532455 1.350629336203258 100 19 13
0.377427716259115 -1.434052943532455 1.370203674409102 82 60 29
0.377427716259115 -1.414478605326610 0.469784116940264 33 8 6
0.377427716259115 -1.414478605326610 0.489358455146108 40 7 15
0.377427716259115 -1.414478605326610 0.508932793351952 38 8 7
0.377427716259115 -1.414478605326610 0.528507131557797 41 8 8
0.377427716259115 -1.414478605326610 0.548081469763641 48 8 2
0.377427716259115 -1.414478605326610 0.567655807969485 42 9 7
0.377427716259115 -1.414478605326610 0.587230146175330 44 9 6
0.377427716259115 -1.414478605326610 0.606804484381174 48 9 9
0.377427716259115 -1.414478605326610 0.626378822587018 49 9 7
0.377427716259115 -1.414478605326610 0.645953160792862 52 8 8
0.377427716259115 -1.414478605326610 0.665527498998707 49 10 11
0.377427716259115 -1.414478605326610 0.685101837204551 47 10 3
0.377427716259115 -1.414478605326610 0.704676175410395 42 9 7
0.377427716259115 -1.414478605326610 0.724250513616240 46 10 7
0.377427716259115 -1.414478605326610 0.743824851822084 46 9 9
0.377427716259115 -1.414478605326610 0.763399190027928 43 8 9
0.377427716259115 -1.414478605326610 0.782973528233773 39 8 8
0.377427716259115 -1.414478605326610 0.802547866439617 44 8 9
0.377427716259115 -1.414478605326610 0.822122204645461 46 9 8
0.377427716259115 -1.414478605326610 0.841696542851306 46 7 7
0.377427716259115 -1.414478605326610 0.861270881057150 45 7 7
0.377427716259115 -1.414478605326610 0.880845219262994 36 8 4
0.377427716259115 -1.414478605326610 0.900419557468839 42 9 9
0.377427716259115 -1.414478605326610 0.919993895674683 36 8 6
0.377427716259115 -1.414478605326610 0.939568233880527 36 7 4
0.377427716259115 -1.414478605326610 0.959142572086372 34 7 7
0.377427716259115 -1.414478605326610 0.978716910292216 34 7 6
0.377427716259115 -1.414478605326610 0.998291248498060 40 9 8
0.377427716259115 -1.414478605326610 1.017865586703905 58 10 9
0.377427716259115 -1.414478605326610 1.037439924909749 81 12 10
0.377427716259115 -1.414478605326610 1.057014263115593 88 16 11
0.377427716259115 -1.414478605326610 1.076588601321437 79 13 8
0.377427716259115 -1.414478605326610 1.096162939527282 71 12 9
0.377427716259115 -1.414478605326610 1.115737277733126 69 9 8
0.377427716259115 -1.414478605326610 1.135311615938970 102 24 19
0.377427716259115 -1.414478605326610 1.154885954144815 210 104 74
0.377427716259115 -1.414478605326610 1.174460292350659 223 149 115
0.377427716259115 -1.414478605326610 1.194034630556503 212 136 111
0.377427716259115 -1.414478605326610 1.213608968762348 213 136 101
0.377427716259115 -1.414478605326610 1.233183306968192 218 145 110
0.377427716259115 -1.414478605326610 1.252757645174036 188 84 95
0.377427716259115 -1.414478605326610 1.272331983379881 84 15 10
0.377427716259115 -1.414478605326610 1.291906321585725 99 18 13
0.377427716259115 -1.414478605326610 1.311480659791569 88 16 17
0.377427716259115 -1.414478605326610 1.331054997997414 83 15 9
0.377427716259115 -1.414478605326610 1.350629336203258 116 18 15
0.377427716259115 -1.414478605326610 1.370203674409102 89 18 13
0.377427716259115 -1.414478605326610 1.389778012614947 86 44 38
0.377427716259115 -1.414478605326610 1.409352350820791 75 82 74
0.377427716259115 -1.394904267120766 0.430635440528575 31 8 9
0.377427716259115 -1.394904267120766 0.450209778734419 32 8 5
0.377427716259115 -1.394904267120766 0.469784116940264 32 7 7
0.377427716259115 -1.394904267120766 0.489358455146108 37 7 13
0.377427716259115 -1.394904267120766 0.508932793351952 37 8 6
0.377427716259115 -1.394904267120766 0.528507131557797 37 7 7
0.377427716259115 -1.394904267120766 0.548081469763641 40 7 9
0.377427716259115 -1.394904267120766 0.567655807969485 36 7 5
0.377427716259115 -1.394904267120766 0.587230146175330 42 8 8
0.377427716259115 -1.394904267120766 0.606804484381174 44 9 9
0.377427716259115 -1.394904267120766 0.626378822587018 45 10 5
0.377427716259115 -1.394904267120766 0.645953160792862 44 9 9
0.377427716259115 -1.394904267120766 0.665527498998707 47 9 9
0.377427716259115 -1.394904267120766 0.685101837204551 47 9 8
0.377427716259115 -1.394904267120766 0.704676175410395 41 8 8
0.377427716259115 -1.394904267120766 0.724250513616240 45 8 8
0.377427716259115 -1.394904267120766 0.743824851822084 42 8 9
0.377427716259115 -1.394904267120766 0.763399190027928 46 8 8
0.377427716259115 -1.394904267120766 0.782973528233773 38 8 6
0.377427716259115 -1.394904267120766 0.802547866439617 41 9 10
0.377427716259115 -1.394904267120766 0.822122204645461 43 9 6
0.377427716259115 -1.394904267120766 0.841696542851306 44 9 1
0.377427716259115 -1.394904267120766 0.861270881057150 46 9 1
0.377427716259115 -1.394904267120766 0.880845219262994 32 8 5
0.377427716259115 -1.394904267120766 0.900419557468839 34 8 7
0.377427716259115 -1.394904267120766 0.919993895674683 33 7 6
0.377427716259115 -1.394904267120766 0.939568233880527 34 8 7
0.377427716259115 -1.394904267120766 0.959142572086372 30 8 7
0.377427716259115 -1.394904267120766 0.978716910292216 32 6 6
0.377427716259115 -1.394904267120766 0.998291248498060 41 8 8
0.377427716259115 -1.394904267120766 1.017865586703905 37 9 6
0.377427716259115 -1.394904267120766 1.037439924909749 53 10 8
0.377427716259115 -1.394904267120766 1.057014263115593 88 15 9
0.377427716259115 -1.394904267120766 1.076588601321437 62 11 10
0.377427716259115 -1.394904267120766 1.096162939527282 56 11 8
0.377427716259115 -1.394904267120766 1.115737277733126 90 15 4
0.377427716259115 -1.394904267120766 1.135311615938970 103 18 19
0.377427716259115 -1.394904267120766 1.154885954144815 152 116 78
0.377427716259115 -1.394904267120766 1.174460292350659 228 144 119
0.377427716259115 -1.394904267120766 1.194034630556503 222 143 108
0.377427716259115 -1.394904267120766 1.213608968762348 219 139 122
0.377427716259115 -1.394904267120766 1.233183306968192 225 135 108
0.377427716259115 -1.394904267120766 1.252757645174036 235 156 125
0.377427716259115 -1.394904267120766 1.272331983379881 234 122 112
0.377427716259115 -1.394904267120766 1.291906321585725 98 36 42
0.377427716259115 -1.394904267120766 1.311480659791569 105 14 18
0.377427716259115 -1.394904267120766 1.331054997997414 94 12 8
0.377427716259115 -1.394904267120766 1.350629336203258 96 15 14
0.377427716259115 -1.394904267120766 1.370203674409102 95 14 10
0.377427716259115 -1.394904267120766 1.389778012614947 106 34 15
0.377427716259115 -1.394904267120766 1.409352350820791 246 145 114
0.377427716259115 -1.394904267120766 1.428926689026635 250 149 116
0.377427716259115 -1.394904267120766 1.448501027232479 255 155 114
0.377427716259115 -1.375329928914922 0.411061102322731 26 7 8
0.377427716259115 -1.375329928914922 0.430635440528575 26 9 5
0.377427716259115 -1.375329928914922 0.450209778734419 28 6 11
0.377427716259115 -1.375329928914922 0.469784116940264 30 7 8
0.377427716259115 -1.375329928914922 0.489358455146108 32 8 9
0.377427716259115 -1.375329928914922 0.508932793351952 38 8 1
0.377427716259115 -1.375329928914922 0.528507131557797 36 8 6
0.377427716259115 -1.375329928914922 0.548081469763641 37 8 8
0.377427716259115 -1.375329928914922 0.567655807969485 33 7 8
0.377427716259115 -1.375329928914922 0.587230146175330 37 8 7
0.377427716259115 -1.375329928914922 0.606804484381174 40 7 6
0.377427716259115 -1.375329928914922 0.626378822587018 37 8 5
0.377427716259115 -1.375329928914922 0.645953160792862 37 8 5
0.377427716259115 -1.375329928914922 0.665527498998707 40 8 7
0.377427716259115 -1.375329928914922 0.685101837204551 35 6 9
0.377427716259115 -1.375329928914922 0.704676175410395 37 8 6
0.377427716259115 -1.375329928914922 0.724250513616240 39 8 9
0.377427716259115 -1.375329928914922 0.743824851822084 42 6 10
0.377427716259115 -1.375329928914922 0.763399190027928 42 9 3
0.377427716259115 -1.375329928914922 0.782973528233773 37 7 8
0.377427716259115 -1.375329928914922 0.802547866439617 36 8 7
0.377427716259115 -1.375329928914922 0.822122204645461 40 7 5
0.377427716259115 -1.375329928914922 0.841696542851306 43 8 5
0.377427716259115 -1.375329928914922 0.861270881057150 36 6 4
0.377427716259115 -1.375329928914922 0.880845219262994 30 6 9
0.377427716259115 -1.375329928914922 0.900419557468839 38 8 6
0.377427716259115 -1.375329928914922 0.919993895674683 34 7 5
0.377427716259115 -1.375329928914922 0.939568233880527 27 4 8
0.377427716259115 -1.375329928914922 0.959142572086372 26 6 5
0.377427716259115 -1.375329928914922 0.978716910292216 35 6 6
0.377427716259115 -1.375329928914922 0.998291248498060 47 11 9
0.377427716259115 -1.375329928914922 1.017865586703905 44 9 5
0.377427716259115 -1.375329928914922 1.037439924909749 58 10 10
0.377427716259115 -1.375329928914922 1.057014263115593 64 11 5
0.377427716259115 -1.375329928914922 1.076588601321437 69 11 8
0.377427716259115 -1.375329928914922 1.096162939527282 73 13 8
0.377427716259115 -1.375329928914922 1.115737277733126 65 12 5
0.377427716259115 -1.375329928914922 1.135311615938970 91 15 10
0.377427716259115 -1.375329928914922 1.154885954144815 77 14 12
0.377427716259115 -1.375329928914922 1.174460292350659 123 32 12
0.377427716259115 -1.375329928914922 1.194034630556503 218 134 110
0.377427716259115 -1.375329928914922 1.213608968762348 218 136 111
0.377427716259115 -1.375329928914922 1.233183306968192 211 129 105
0.377427716259115 -1.375329928914922 1.252757645174036 207 125 100
0.377427716259115 -1.375329928914922 1.272331983379881 209 119 101
0.377427716259115 -1.375329928914922 1.291906321585725 235 139 111
0.377427716259115 -1.375329928914922 1.311480659791569 157 28 41
0.377427716259115 -1.375329928914922 1.331054997997414 115 19 12
0.377427716259115 -1.375329928914922 1.350629336203258 100 13 9
0.377427716259115 -1.375329928914922 1.370203674409102 103 16 9
0.377427716259115 -1.375329928914922 1.389778012614947 91 13 10
0.377427716259115 -1.375329928914922 1.409352350820791 247 159 125
0.377427716259115 -1.375329928914922 1.428926689026635 255 172 144
0.377427716259115 -1.375329928914922 1.448501027232479 255 200 171
0.377427716259115 -1.375329928914922 1.468075365438324 255 196 157
0.377427716259115 -1.355755590709077 0.411061102322731 28 7 6
0.377427716259115 -1.355755590709077 0.430635440528575 27 7 9
0.377427716259115 -1.355755590709077 0.450209778734419 26 7 6
0.377427716259115 -1.355755590709077 0.469784116940264 26 7 4
0.377427716259115 -1.355755590709077 0.489358455146108 25 6 3
0.377427716259115 -1.355755590709077 0.508932793351952 33 6 5
0.377427716259115 -1.355755590709077 0.528507131557797 34 7 6
0.377427716259115 -1.355755590709077 0.548081469763641 32 7 8
0.377427716259115 -1.355755590709077 0.567655807969485 35 7 1
0.377427716259115 -1.355755590709077 0.587230146175330 35 8 7
0.377427716259115 -1.355755590709077 0.606804484381174 36 7 5
0.377427716259115 -1.355755590709077 0.626378822587018 34 6 7
0.377427716259115 -1.355755590709077 0.645953160792862 33 7 5
0.377427716259115 -1.355755590709077 0.665527498998707 35 7 6
0.377427716259115 -1.355755590709077 0.685101837204551 33 6 8
0.377427716259115 -1.355755590709077 0.704676175410395 34 7 3
0.377427716259115 -1.355755590709077 0.724250513616240 38 7 6
0.377427716259115 -1.355755590709077 0.743824851822084 40 8 7
0.377427716259115 -1.355755590709077 0.763399190027928 38 8 1
0.377427716259115 -1.355755590709077 0.782973528233773 34 7 5
0.377427716259115 -1.355755590709077 0.802547866439617 32 9 5
0.377427716259115 -1.355755590709077 0.822122204645461 34 8 6
0.377427716259115 -1.355755590709077 0.841696542851306 34 8 6
0.377427716259115 -1.355755590709077 0.861270881057150 36 9 3
0.377427716259115 -1.355755590709077 0.880845219262994 29 4 5
0.377427716259115 -1.355755590709077 0.900419557468839 38 8 4
0.377427716259115 -1.355755590709077 0.919993895674683 37 7 6
0.377427716259115 -1.355755590709077 0.939568233880527 25 4 13
0.377427716259115 -1.355755590709077 0.959142572086372 23 6 3
0.377427716259115 -1.355755590709077 0.978716910292216 45 8 7
0.377427716259115 -1.355755590709077 0.998291248498060 54 11 7
0.377427716259115 -1.355755590709077 1.017865586703905 44 8 7
0.377427716259115 -1.355755590709077 1.037439924909749 65 11 10
0.377427716259115 -1.355755590709077 1.057014263115593 71 13 6
0.377427716259115 -1.355755590709077 1.076588601321437 64 7 10
0.377427716259115 -1.355755590709077 1.096162939527282 72 12 8
0.377427716259115 -1.355755590709077 1.115737277733126 86 12 12
0.377427716259115 -1.355755590709077 1.135311615938970 49 9 11
0.377427716259115 -1.355755590709077 1.154885954144815 47 9 11
0.377427716259115 -1.355755590709077 1.174460292350659 106 25 53
0.377427716259115 -1.355755590709077 1.194034630556503 185 115 92
0.377427716259115 -1.355755590709077 1.213608968762348 183 112 88
0.377427716259115 -1.355755590709077 1.233183306968192 196 112 94
0.377427716259115 -1.355755590709077 1.252757645174036 178 117 92
0.377427716259115 -1.355755590709077 1.272331983379881 191 115 92
0.377427716259115 -1.355755590709077 1.291906321585725 232 129 113
0.377427716259115 -1.355755590709077 1.311480659791569 255 141 117
0.377427716259115 -1.355755590709077 1.331054997997414 137 18 18
0.377427716259115 -1.355755590709077 1.350629336203258 107 18 10
0.377427716259115 -1.355755590709077 1.370203674409102 94 15 12
0.377427716259115 -1.355755590709077 1.389778012614947 85 13 11
0.377427716259115 -1.355755590709077 1.409352350820791 186 135 80
0.377427716259115 -1.355755590709077 1.428926689026635 245 163 135
0.377427716259115 -1.355755590709077 1.448501027232479 255 176 140
0.377427716259115 -1.355755590709077 1.468075365438324 255 219 174
0.377427716259115 -1.336181252503233 0.430635440528575 23 6 8
0.377427716259115 -1.336181252503233 0.450209778734419 26 7 8
0.377427716259115 -1.336181252503233 0.469784116940264 26 7 6
0.377427716259115 -1.336181252503233 0.489358455146108 25 4 6
0.377427716259115 -1.336181252503233 0.508932793351952 25 5 3
0.377427716259115 -1.336181252503233 0.528507131557797 29 6 6
0.377427716259115 -1.336181252503233 0.548081469763641 29 6 6
0.377427716259115 -1.336181252503233 0.567655807969485 29 6 3
0.377427716259115 -1.336181252503233 0.587230146175330 28 7 6
0.377427716259115 -1.336181252503233 0.606804484381174 33 7 6
0.377427716259115 -1.336181252503233 0.626378822587018 29 6 7
0.377427716259115 -1.336181252503233 0.645953160792862 29 6 8
0.377427716259115 -1.336181252503233 0.665527498998707 33 7 5
0.377427716259115 -1.336181252503233 0.685101837204551 31 7 8
0.377427716259115 -1.336181252503233 0.704676175410395 27 6 4
0.377427716259115 -1.336181252503233 0.724250513616240 33 6 8
0.377427716259115 -1.336181252503233 0.743824851822084 30 7 4
0.377427716259115 -1.336181252503233 0.763399190027928 30 7 1
0.377427716259115 -1.336181252503233 0.782973528233773 31 7 5
0.377427716259115 -1.336181252503233 0.802547866439617 30 6 4
0.377427716259115 -1.336181252503233 0.822122204645461 29 6 6
0.377427716259115 -1.336181252503233 0.841696542851306 29 7 4
0.377427716259115 -1.336181252503233 0.861270881057150 30 6 5
0.377427716259115 -1.336181252503233 0.880845219262994 29 5 9
0.377427716259115 -1.336181252503233 0.900419557468839 28 6 4
0.377427716259115 -1.336181252503233 0.919993895674683 26 6 6
0.377427716259115 -1.336181252503233 0.939568233880527 26 6 7
0.377427716259115 -1.336181252503233 0.959142572086372 33 6 1
0.377427716259115 -1.336181252503233 0.978716910292216 45 10 8
0.377427716259115 -1.336181252503233 0.998291248498060 44 10 4
0.377427716259115 -1.336181252503233 1.017865586703905 39 10 11
0.377427716259115 -1.336181252503233 1.037439924909749 41 12 10
0.377427716259115 -1.336181252503233 1.057014263115593 61 12 6
0.377427716259115 -1.336181252503233 1.076588601321437 74 10 11
0.377427716259115 -1.336181252503233 1.096162939527282 101 16 11
0.377427716259115 -1.336181252503233 1.115737277733126 96 14 8
0.377427716259115 -1.336181252503233 1.135311615938970 57 10 9
0.377427716259115 -1.336181252503233 1.154885954144815 52 9 3
0.377427716259115 -1.336181252503233 1.174460292350659 78 15 30
0.377427716259115 -1.336181252503233 1.194034630556503 141 82 66
0.377427716259115 -1.336181252503233 1.213608968762348 151 92 76
0.377427716259115 -1.336181252503233 1.233183306968192 170 106 88
0.377427716259115 -1.336181252503233 1.252757645174036 141 74 76
0.377427716259115 -1.336181252503233 1.272331983379881 115 94 60
0.377427716259115 -1.336181252503233 1.291906321585725 161 124 106
0.377427716259115 -1.336181252503233 1.311480659791569 215 136 124
0.377427716259115 -1.336181252503233 1.331054997997414 255 163 134
0.377427716259115 -1.336181252503233 1.350629336203258 102 42 38
0.377427716259115 -1.336181252503233 1.370203674409102 98 17 11
0.377427716259115 -1.336181252503233 1.389778012614947 105 16 14
0.377427716259115 -1.336181252503233 1.409352350820791 129 23 16
0.377427716259115 -1.336181252503233 1.428926689026635 228 124 100
0.377427716259115 -1.336181252503233 1.448501027232479 255 184 136
0.377427716259115 -1.336181252503233 1.468075365438324 255 214 159
0.377427716259115 -1.316606914297389 0.430635440528575 37 5 5
0.377427716259115 -1.316606914297389 0.450209778734419 38 8 3
0.377427716259115 -1.316606914297389 0.469784116940264 36 7 6
0.377427716259115 -1.316606914297389 0.489358455146108 34 7 5
0.377427716259115 -1.316606914297389 0.508932793351952 29 8 6
0.377427716259115 -1.316606914297389 0.528507131557797 27 6 7
0.377427716259115 -1.316606914297389 0.548081469763641 26 5 6
0.377427716259115 -1.316606914297389 0.567655807969485 29 6 10
0.377427716259115 -1.316606914297389 0.587230146175330 28 6 6
0.377427716259115 -1.316606914297389 0.606804484381174 31 6 4
0.377427716259115 -1.316606914297389 0.626378822587018 43 6 3
0.377427716259115 -1.316606914297389 0.645953160792862 49 6 6
0.377427716259115 -1.316606914297389 0.665527498998707 65 8 5
0.377427716259115 -1.316606914297389 0.685101837204551 69 8 5
0.377427716259115 -1.316606914297389 0.704676175410395 70 7 7
0.377427716259115 -1.316606914297389 0.724250513616240 65 8 6
0.377427716259115 -1.316606914297389 0.743824851822084 55 11 23
0.377427716259115 -1.316606914297389 0.763399190027928 32 7 11
0.377427716259115 -1.316606914297389 0.782973528233773 35 7 7
0.377427716259115 -1.316606914297389 0.802547866439617 34 8 4
0.377427716259115 -1.316606914297389 0.822122204645461 35 8 6
0.377427716259115 -1.316606914297389 0.841696542851306 38 9 5
0.377427716259115 -1.316606914297389 0.861270881057150 39 8 8
0.377427716259115 -1.316606914297389 0.880845219262994 39 9 8
0.377427716259115 -1.316606914297389 0.900419557468839 35 6 2
0.377427716259115 -1.316606914297389 0.919993895674683 24 6 7
0.377427716259115 -1.316606914297389 0.939568233880527 22 6 5
0.377427716259115 -1.316606914297389 0.959142572086372 24 6 3
0.377427716259115 -1.316606914297389 0.978716910292216 11 5 3
0.377427716259115 -1.316606914297389 0.998291248498060 22 10 10
0.377427716259115 -1.316606914297389 1.017865586703905 26 13 10
0.377427716259115 -1.316606914297389 1.037439924909749 38 20 18
0.377427716259115 -1.316606914297389 1.057014263115593 77 12 12
0.377427716259115 -1.316606914297389 1.076588601321437 85 10 9
0.377427716259115 -1.316606914297389 1.096162939527282 101 15 12
0.377427716259115 -1.316606914297389 1.135311615938970 62 10 9
0.377427716259115 -1.316606914297389 1.154885954144815 45 9 11
0.377427716259115 -1.316606914297389 1.174460292350659 54 10 11
0.377427716259115 -1.316606914297389 1.194034630556503 108 61 55
0.377427716259115 -1.316606914297389 1.213608968762348 120 69 46
0.377427716259115 -1.316606914297389 1.233183306968192 118 73 66
0.377427716259115 -1.316606914297389 1.252757645174036 125 82 74
0.377427716259115 -1.316606914297389 1.272331983379881 107 59 48
0.377427716259115 -1.316606914297389 1.291906321585725 111 73 63
0.377427716259115 -1.316606914297389 1.311480659791569 117 78 51
0.377427716259115 -1.316606914297389 1.331054997997414 167 97 65
0.377427716259115 -1.316606914297389 1.350629336203258 196 136 99
0.377427716259115 -1.316606914297389 1.370203674409102 129 20 14
0.377427716259115 -1.316606914297389 1.389778012614947 117 21 15
0.377427716259115 -1.316606914297389 1.409352350820791 103 50 32
0.377427716259115 -1.316606914297389 1.428926689026635 234 129 99
0.377427716259115 -1.316606914297389 1.448501027232479 255 167 110
0.377427716259115 -1.316606914297389 1.468075365438324 240 133 83
0.377427716259115 -1.297032576091544 0.430635440528575 35 8 6
0.377427716259115 -1.297032576091544 0.450209778734419 35 10 4
0.377427716259115 -1.297032576091544 0.469784116940264 36 8 7
0.377427716259115 -1.297032576091544 0.489358455146108 37 8 4
0.377427716259115 -1.297032576091544 0.508932793351952 76 14 5
0.377427716259115 -1.297032576091544 0.528507131557797 89 21 19
0.377427716259115 -1.297032576091544 0.548081469763641 119 43 25
0.377427716259115 -1.297032576091544 0.567655807969485 136 55 31
0.377427716259115 -1.297032576091544 0.587230146175330 146 71 61
0.377427716259115 -1.297032576091544 0.606804484381174 168 88 62
0.377427716259115 -1.297032576091544 0.626378822587018 172 91 74
0.377427716259115 -1.297032576091544 0.645953160792862 177 96 81
0.377427716259115 -1.297032576091544 0.665527498998707 173 98 78
0.377427716259115 -1.297032576091544 0.685101837204551 176 96 78
0.377427716259115 -1.297032576091544 0.704676175410395 158 98 73
0.377427716259115 -1.297032576091544 0.724250513616240 146 90 72
0.377427716259115 -1.297032576091544 0.743824851822084 142 83 67
0.377427716259115 -1.297032576091544 0.763399190027928 133 81 61
0.377427716259115 -1.297032576091544 0.782973528233773 126 78 62
0.377427716259115 -1.297032576091544 0.802547866439617 115 72 61
0.377427716259115 -1.297032576091544 0.822122204645461 107 58 65
0.377427716259115 -1.297032576091544 0.841696542851306 87 48 54
0.377427716259115 -1.297032576091544 0.861270881057150 71 22 39
0.377427716259115 -1.297032576091544 0.880845219262994 51 16 26
0.377427716259115 -1.297032576091544 0.900419557468839 46 9 8
0.377427716259115 -1.297032576091544 0.919993895674683 49 11 12
0.377427716259115 -1.297032576091544 0.939568233880527 52 32 53
0.377427716259115 -1.297032576091544 0.959142572086372 26 18 37
0.377427716259115 -1.297032576091544 0.978716910292216 17 13 13
0.377427716259115 -1.297032576091544 0.998291248498060 36 19 23
0.377427716259115 -1.297032576091544 1.194034630556503 81 45 46
0.377427716259115 -1.297032576091544 1.213608968762348 97 57 47
0.377427716259115 -1.297032576091544 1.233183306968192 99 56 45
